# .PCD v0.7 - Point Cloud Data file format
VERSION 0.7
FIELDS x y z rgb
SIZE 4 4 4 4
TYPE F F F F
COUNT 1 1 1 1
WIDTH 970
HEIGHT 1
VIEWPOINT 0 0 0 1 0 0 0
POINTS 970
DATA ascii
0.054338921 0.13084999 0.54015785 1.3268521e-038
0.061842103 0.1306842 0.54000002 1.3545118e-038
0.075561404 0.13053507 0.54644442 1.3729869e-038
0.085804403 0.13093804 0.54144824 1.3913906e-038
0.094455339 0.13125131 0.54331428 1.3822426e-038
0.10520378 0.13132681 0.54397136 1.3638038e-038
0.11501637 0.13153484 0.5431456 1.3729878e-038
0.12486767 0.13126336 0.54448992 1.3546202e-038
0.13493037 0.13113016 0.54163647 1.3084867e-038
0.14585365 0.13259651 0.54304701 1.2900833e-038
0.15363593 0.13559529 0.54582828 1.0227527e-038
-0.14254895 0.14102894 0.54059994 1.7477723e-039
0.15490843 0.14471948 0.5436002 7.0014126e-039
0.16110711 0.1451222 0.54890001 6.3564075e-039
0.15437764 0.15009868 0.54149997 6.170217e-039
0.01762829 -0.11018091 0.55825001 1.5768309e-038
0.021085089 -0.11032895 0.55900002 1.5860147e-038
-0.012722586 -0.10143882 0.55775005 1.5582481e-038
-0.004528095 -0.10212578 0.55551428 1.6044544e-038
0.0053718379 -0.10374276 0.55535823 1.6136742e-038
0.015108532 -0.10439109 0.55412513 1.5307335e-038
0.024699401 -0.10392131 0.55479181 1.5306976e-038
0.034145158 -0.1028748 0.55642855 1.567612e-038
0.042632788 -0.10094462 0.55862498 1.5491729e-038
-0.03252431 -0.091485582 0.55814296 1.4938198e-038
-0.024572404 -0.093558177 0.55464411 1.5398814e-038
-0.015412146 -0.095996082 0.55364794 1.5306617e-038
-0.005209201 -0.09745457 0.55118603 1.5582845e-038
0.003240309 -0.097981319 0.55023813 1.429283e-038
0.0154181 -0.098523758 0.55081815 1.3740368e-038
0.025604257 -0.097813241 0.55124992 1.4293185e-038
0.035360526 -0.096621074 0.55243754 1.5307339e-038
0.044569507 -0.09479744 0.55453402 1.5308059e-038
0.052717209 -0.092667103 0.55702943 1.4108797e-038
-0.041561812 -0.082692258 0.55741173 1.300137e-038
-0.035192035 -0.084942877 0.55501074 1.3462707e-038
-0.027359141 -0.087289721 0.55124241 1.4568328e-038
0.047050614 -0.085662916 0.5517143 1.3555981e-038
0.054467313 -0.084650978 0.55525923 1.3648179e-038
0.061076142 -0.081271224 0.55880004 1.3924769e-038
-0.04279552 -0.074902818 0.55639273 1.1249295e-038
-0.036259778 -0.075261988 0.55273253 1.1710629e-038
0.049356345 -0.076839879 0.55038464 1.1711708e-038
0.05502801 -0.074781522 0.55331582 1.1250375e-038
0.061756738 -0.075404592 0.55818748 1.1342571e-038
-0.043806545 -0.064908236 0.55573744 1.0050747e-038
-0.037153259 -0.065031268 0.55167288 1.0511365e-038
0.049692981 -0.065131575 0.55000001 1.1987224e-038
0.055608537 -0.065174617 0.55323428 1.2172329e-038
0.062895395 -0.065105371 0.5573042 1.2357439e-038
-0.043536868 -0.055191599 0.55629861 8.944404e-039
-0.036359452 -0.054833218 0.55197215 9.0362367e-039
0.056435034 -0.055285979 0.55194736 1.1710992e-038
0.064236932 -0.054479051 0.555875 1.1895383e-038
-0.042818751 -0.045151543 0.55691069 8.667457e-039
-0.035308685 -0.044667661 0.55238557 8.667457e-039
0.057262443 -0.045239858 0.55178332 1.1618796e-038
0.064478666 -0.044807516 0.55543399 1.1065983e-038
-0.041809559 -0.03619336 0.55809999 8.2061159e-039
-0.035031471 -0.035019316 0.55454016 8.1139189e-039
-0.027856775 -0.033651281 0.5508377 8.574897e-039
0.058150087 -0.035043009 0.55079406 1.1065622e-038
0.064607255 -0.034995351 0.5548622 1.1250368e-038
0.070512459 -0.031676669 0.55900002 1.0604273e-038
-0.040699124 -0.029911404 0.55900002 8.576346e-039
-0.034217227 -0.025639556 0.55639005 8.8518539e-039
-0.025929971 -0.024790026 0.55232543 8.6674584e-039
-0.018815789 -0.021228069 0.55000001 8.8522154e-039
0.056789156 -0.024782669 0.55169237 9.035878e-039
0.064886607 -0.025321646 0.55568093 8.8518483e-039
0.070855699 -0.02795 0.55900002 8.7603673e-039
-0.031915449 -0.017721979 0.55783337 9.3124719e-039
-0.025194438 -0.015203304 0.55466348 9.2206364e-039
-0.016066503 -0.013883794 0.55181175 8.8518511e-039
-0.0080461986 -0.010459357 0.55033338 8.7585694e-039
0.048381325 -0.012395578 0.55062503 8.7582037e-039
0.055222213 -0.015059458 0.55352467 8.8514839e-039
0.063093141 -0.015566268 0.55754989 8.6674486e-039
-0.02305897 -0.0057342774 0.557423 9.4046703e-039
-0.01492887 -0.0049788221 0.55565089 9.2206336e-039
-0.0049771299 -0.004716523 0.55271137 9.220272e-039
0.0022952026 -0.0029288102 0.55115628 9.3124677e-039
0.046158545 -0.0046003293 0.5522362 9.4050206e-039
0.054274805 -0.0051207119 0.55594128 9.4972163e-039
0.060504392 -0.0085732453 0.55850005 9.3135481e-039
-0.01326267 0.0016880117 0.55840737 9.4965002e-039
-0.0045287232 0.0044964999 0.55663323 9.6812502e-039
0.0046370174 0.0050442019 0.55321074 9.9578399e-039
0.011796541 0.0077755847 0.55016679 9.9578371e-039
0.02617221 0.007931171 0.55032152 1.0142228e-038
0.035704914 0.0059561161 0.55142015 8.9436809e-039
0.044589642 0.0044426345 0.55476135 8.113193e-039
0.053218756 0.0027823492 0.5578292 8.3897841e-039
-0.0019598026 0.014689362 0.55817491 1.0511374e-038
0.0049732039 0.014910675 0.55500019 1.0418815e-038
0.014647027 0.015401506 0.55238527 9.4961345e-039
0.025135644 0.014910885 0.55308419 9.1273505e-039
0.034265745 0.013684209 0.55610961 8.2975927e-039
0.040699124 0.01078772 0.55900002 7.7444175e-039
-0.0013812599 0.021428309 0.55863643 1.0235497e-038
0.0052282386 0.022800168 0.55753845 9.5883189e-039
0.014695023 0.022932304 0.55705762 8.7571191e-039
0.025186414 0.022014488 0.55699998 8.5730866e-039
0.031382456 0.020104386 0.55900002 8.2975913e-039
-0.14319366 0.11890021 0.55755556 7.1843647e-039
-0.1350036 0.11914804 0.55657142 6.1691254e-039
-0.12598035 0.11944649 0.55579996 6.075492e-039
-0.10176557 0.11986732 0.55774999 5.7067151e-039
-0.095412277 0.11958677 0.55727273 5.7978332e-039
-0.15154105 0.12745684 0.55800003 6.2649392e-039
-0.14562947 0.12369397 0.55332851 6.4478829e-039
-0.13560428 0.1212045 0.55305266 6.7223006e-039
-0.12501305 0.12075373 0.55317861 6.351716e-039
-0.11466655 0.1207596 0.55290335 6.168045e-039
-0.10476358 0.12146796 0.55341017 6.1666101e-039
-0.095073864 0.12174202 0.55371755 5.8911036e-039
-0.087306179 0.12191612 0.55247617 5.5226854e-039
0.019758245 0.12721089 0.55479997 1.1607559e-038
0.0237567 0.12799318 0.5545758 1.1700111e-038
0.035495657 0.12825465 0.5563845 1.188414e-038
0.040207677 0.127884 0.55225003 1.2345835e-038
0.066368222 0.12789674 0.55407703 1.3176334e-038
0.074912019 0.12761191 0.55494034 1.3176693e-038
0.084665537 0.1281634 0.55096972 1.3453285e-038
0.094994128 0.12702684 0.55335283 1.3637319e-038
0.10566416 0.1274754 0.55430776 1.3822429e-038
0.11509264 0.12785161 0.55435932 1.3638399e-038
0.12456895 0.12715679 0.55349141 1.3269255e-038
0.13504499 0.1274571 0.55268198 1.3361452e-038
0.14513576 0.12819739 0.55461133 1.3361454e-038
0.15347563 0.12854141 0.55406445 1.3177779e-038
0.16083509 0.12994298 0.55900002 1.3085219e-038
-0.1531294 0.13404901 0.5567224 2.7633255e-039
-0.14880636 0.13400099 0.55100006 4.6061479e-039
0.019780703 0.13074562 0.55000001 1.2253266e-038
0.023455918 0.13055724 0.55124998 1.216145e-038
0.034628071 0.13022105 0.55599999 1.2530952e-038
0.067375191 0.13079599 0.55371428 1.3637664e-038
0.071329094 0.13101302 0.55316663 1.372951e-038
0.087483332 0.13001667 0.551 1.3821358e-038
0.11337719 0.13074562 0.55000001 1.3822428e-038
0.14721215 0.13049838 0.55128574 1.326998e-038
0.15693468 0.13251474 0.55147058 1.1517537e-038
0.16264835 0.135583 0.55543584 8.936432e-039
0.15811579 0.14265819 0.55066669 7.5549465e-039
0.16294883 0.14206891 0.5532223 7.0932509e-039
-0.012465264 -0.11058877 0.56840003 1.6136741e-038
-0.0051458701 -0.11170135 0.56720829 1.6136742e-038
0.005219453 -0.11229788 0.56541175 1.6228932e-038
0.014745627 -0.1146552 0.56510949 1.5768311e-038
0.0251211 -0.11370467 0.56543136 1.6136737e-038
0.034303084 -0.11291678 0.56637257 1.6136741e-038
0.042345982 -0.11159116 0.56791663 1.6045257e-038
-0.031573687 -0.10136988 0.56833339 1.5676119e-038
-0.024404369 -0.10306849 0.56540388 1.5676128e-038
-0.01508526 -0.10541049 0.56361288 1.5860155e-038
-0.0052157501 -0.1073691 0.56288886 1.6228939e-038
0.0036211039 -0.10843183 0.56111765 1.6321852e-038
0.010816228 -0.10964167 0.56050003 1.5953431e-038
0.026998561 -0.10862951 0.56107134 1.5675395e-038
0.035822529 -0.10754275 0.5628857 1.576832e-038
0.044754982 -0.10541585 0.5638572 1.5399896e-038
0.053877234 -0.10285564 0.56630003 1.539954e-038
0.061540786 -0.10062704 0.56883335 1.539989e-038
-0.04335982 -0.092703417 0.56630558 1.4384666e-038
-0.034940798 -0.095447414 0.56292987 1.5399179e-038
-0.026342608 -0.098162159 0.5615238 1.5768321e-038
0.049316082 -0.099451162 0.56033331 1.5215866e-038
0.056397453 -0.096065879 0.56225008 1.4754885e-038
0.063457556 -0.093856841 0.56525493 1.3924409e-038
0.070252627 -0.090681575 0.56799996 1.3002089e-038
-0.051832676 -0.083765358 0.56712496 1.2356361e-038
-0.045751367 -0.085456446 0.56310445 1.3186842e-038
-0.039789476 -0.089894734 0.56 1.4843491e-038
0.058586221 -0.088369921 0.56029999 1.3187565e-038
0.065109856 -0.085304059 0.56343359 1.3464148e-038
0.071681373 -0.083517954 0.56776929 1.3740375e-038
-0.053239502 -0.074813053 0.56596148 1.1065261e-038
-0.048128627 -0.075035676 0.56127518 1.1065259e-038
0.066887423 -0.075134523 0.56226993 1.1249653e-038
0.073372543 -0.07464534 0.56694353 1.1065258e-038
-0.05377778 -0.064815797 0.56526154 9.9589161e-039
-0.049007177 -0.065392986 0.56086957 9.7745248e-039
0.067735061 -0.065071635 0.56138647 1.2357444e-038
0.074144498 -0.064316675 0.56564188 1.2448916e-038
-0.054052584 -0.054870382 0.56568068 9.6823278e-039
-0.04874292 -0.054353308 0.56085193 9.4057451e-039
0.068526447 -0.057112005 0.56015384 1.2264526e-038
0.074796543 -0.055030745 0.5646224 1.1803548e-038
0.080589131 -0.054097235 0.56900012 1.1618795e-038
-0.053797409 -0.045089614 0.56660008 8.2068376e-039
-0.048126765 -0.044883754 0.56230426 8.5748998e-039
0.06926316 -0.04540351 0.56 1.1158897e-038
0.074651226 -0.044981226 0.56350559 1.1065983e-038
0.081390761 -0.044385966 0.56853336 1.0697203e-038
-0.052045345 -0.035415243 0.56755817 8.2075621e-039
-0.046225972 -0.034393057 0.56303072 8.2068404e-039
0.06926316 -0.036842108 0.56 1.1342572e-038
0.074907355 -0.035142623 0.56417245 1.0051828e-038
0.080858685 -0.0376864 0.56829995 9.9596321e-039
-0.050367106 -0.028923247 0.56850004 8.3916002e-039
-0.044426464 -0.025142973 0.56513733 8.8518525e-039
-0.03856704 -0.023278145 0.56066668 8.9440523e-039
0.069314033 -0.021591928 0.56199998 8.3915974e-039
0.075229719 -0.024644818 0.5663178 9.221351e-039
0.080318414 -0.023448246 0.56871432 9.4979407e-039
-0.054402944 -0.014251043 0.56464994 1.0234409e-038
-0.043474067 -0.015121307 0.56665468 1.0050384e-038
-0.035643771 -0.014200193 0.56256765 9.0362409e-039
-0.029637426 -0.010643274 0.56 9.0373255e-039
0.067545779 -0.013500652 0.56141031 8.5756117e-039
0.073516384 -0.015628072 0.56672728 9.4046577e-039
-0.053428717 -0.0049647563 0.56279033 8.7603743e-039
-0.048116609 -0.0054804091 0.56233335 1.0326615e-038
-0.034194581 -0.0054388149 0.56520241 8.9436866e-039
-0.027030814 -0.003715565 0.56072104 9.4972219e-039
0.058655262 -0.0022935672 0.56033331 9.4975778e-039
0.064524241 -0.0050467569 0.56234193 9.0362367e-039
0.072102763 -0.0075791315 0.56810522 8.2057572e-039
-0.053423904 0.0053181928 0.56512314 9.9581958e-039
-0.048486527 0.0043050526 0.56519991 1.1248214e-038
-0.031836845 0.0041237329 0.56755561 9.5890532e-039
-0.024725325 0.004950658 0.56358999 9.7734444e-039
-0.015312986 0.0061245486 0.56160289 9.6812502e-039
-0.0081698243 0.0084643867 0.56099999 9.7738088e-039
0.047175761 0.0088092517 0.56072724 7.5589332e-039
0.05551799 0.0061944919 0.56306982 7.6518505e-039
0.063872702 0.0017295438 0.56616002 7.744779e-039
-0.054228861 0.014921703 0.56599987 9.2206266e-039
-0.049109209 0.010913596 0.56550002 9.8656204e-039
-0.030669298 0.011220613 0.56850004 1.0234418e-038
-0.024368977 0.014427396 0.56658638 9.8652757e-039
-0.014856853 0.014855301 0.56443959 1.0050033e-038
-0.0068977308 0.014776768 0.56148344 1.0418818e-038
0.037373438 0.017432854 0.56190914 8.7585708e-039
0.044767719 0.014885387 0.565409 8.2975899e-039
0.051841341 0.012581081 0.56756532 7.7440574e-039
-0.054567911 0.022286816 0.56837517 1.0049305e-038
-0.048414916 0.021961404 0.56900001 8.9418649e-039
-0.021537509 0.023411263 0.56780005 1.0418808e-038
-0.01489088 0.024817007 0.56571984 9.9574713e-039
-0.0053806035 0.025090732 0.563146 9.4042906e-039
0.0042271502 0.027359398 0.56214285 8.8493063e-039
0.015024605 0.02761052 0.5625 8.8478616e-039
0.024825327 0.026746105 0.56182462 8.4794406e-039
0.034854945 0.024876883 0.56514287 8.573088e-039
0.042329464 0.022530552 0.56724143 9.3110229e-039
-0.014079177 0.031216092 0.56878275 9.6805201e-039
-0.0049869292 0.031410556 0.56836677 9.4957589e-039
0.0048777149 0.031717543 0.56708121 9.4946785e-039
0.014857205 0.031276941 0.56721431 9.1248114e-039
0.022706142 0.030912429 0.56683332 8.8478616e-039
0.03244298 0.030446494 0.56900001 8.2950465e-039
-0.023284167 0.10686329 0.56717956 1.5307346e-038
-0.015950272 0.10690328 0.56615394 1.4937839e-038
-0.15229473 0.11823289 0.56575006 7.3684029e-039
-0.14505769 0.11780507 0.56336373 7.091446e-039
-0.13495228 0.11769833 0.56323075 5.9843754e-039
-0.12199897 0.11803383 0.56447828 5.7074326e-039
-0.11530735 0.11807446 0.56483024 5.7070739e-039
-0.10446618 0.1181874 0.56578732 5.3386557e-039
-0.098215617 0.11832412 0.56507146 5.0624317e-039
-0.020284209 0.11032632 0.56400001 5.5367558e-039
-0.016659696 0.11150336 0.56468421 2.027571e-039
-0.16139606 0.12881841 0.56699997 9.1852312e-041
-0.15491369 0.12548757 0.56297886 5.9890754e-039
-0.14949708 0.12067837 0.56 6.8155794e-039
-0.12373859 0.1207807 0.56199998 6.3509985e-039
-0.11308633 0.12084538 0.56199998 5.9832978e-039
-0.10712098 0.12076104 0.56191665 5.9825803e-039
-0.097676016 0.12007895 0.56333333 5.4308499e-039
0.018879121 0.12622054 0.56339997 1.0316456e-038
0.025382621 0.12738104 0.56359261 1.06856e-038
0.036262307 0.12632351 0.56419349 1.0501923e-038
0.045448817 0.12675163 0.56367934 1.1238414e-038
0.052783616 0.12601911 0.56637776 1.1423164e-038
0.068240784 0.12560044 0.56783336 1.2254383e-038
0.074730001 0.12445179 0.5664261 1.2346576e-038
0.085024953 0.12604053 0.5636338 1.3084502e-038
0.095248625 0.12522337 0.56387275 1.3545842e-038
0.10481988 0.12468685 0.56339353 1.3453649e-038
0.11609724 0.12509695 0.5634594 1.3545123e-038
0.12520935 0.12496548 0.56485373 1.3545481e-038
0.13496247 0.12526569 0.56383997 1.3545483e-038
0.14512824 0.12503883 0.56494439 1.3545122e-038
0.15503983 0.12568268 0.56581336 1.3269618e-038
0.16294608 0.12753597 0.56470585 1.2993379e-038
-0.16117091 0.13217764 0.56650001 2.7589044e-040
-0.15796916 0.13448164 0.56148648 6.4466315e-040
0.16692337 0.13237263 0.56489283 9.765471e-039
0.17020088 0.13126931 0.56900001 9.4892527e-039
-0.16155526 0.14177807 0.56055552 1.1154336e-042
-0.15947752 0.14175822 0.56112492 3.9376487e-043
-0.0019568924 -0.1213822 0.57828575 1.6226048e-038
0.0047144908 -0.12172725 0.57675987 1.641152e-038
0.012736364 -0.12205344 0.57690912 1.6504802e-038
0.025347369 -0.12068398 0.57533336 1.7058343e-038
0.035005748 -0.12073997 0.57833338 1.6228573e-038
0.040631577 -0.12037106 0.579 1.7242376e-038
-0.023698317 -0.11297277 0.57808101 1.5674682e-038
-0.015477355 -0.11472838 0.57588321 1.5859432e-038
-0.0043850089 -0.11680319 0.57549995 1.6044182e-038
0.0045239767 -0.11751171 0.57352376 1.5859784e-038
0.015443334 -0.11933509 0.57160002 1.659808e-038
0.024079014 -0.1184423 0.57178575 1.6413689e-038
0.036130924 -0.11833794 0.57712501 1.6598082e-038
0.045668446 -0.11424237 0.57424319 1.6137457e-038
0.053413164 -0.11319365 0.57642871 1.5768681e-038
-0.043278791 -0.10210962 0.57686955 1.512187e-038
-0.03528719 -0.10465499 0.57445765 1.5676127e-038
-0.025943134 -0.1078931 0.57299995 1.5676128e-038
-0.017551756 -0.10982018 0.57166666 1.5951277e-038
0.048835523 -0.1094421 0.57099998 1.5032194e-038
0.055944987 -0.10717657 0.57191426 1.5216584e-038
0.064741366 -0.10364882 0.57609999 1.5215506e-038
0.071724884 -0.10155713 0.57887501 1.5123313e-038
-0.053886041 -0.093051389 0.57511634 1.1802104e-038
-0.046302013 -0.096653439 0.57292676 1.4477582e-038
-0.038412135 -0.099370025 0.57116663 1.5491734e-038
0.067559727 -0.097150721 0.57382607 1.4846725e-038
0.074397199 -0.09469562 0.57558727 1.3925125e-038
0.08066009 -0.091278508 0.5765 1.4107712e-038
-0.061501246 -0.082538366 0.57689482 1.0233673e-038
-0.056408759 -0.085575379 0.57290006 1.1618426e-038
0.07596314 -0.085876584 0.57205069 1.3555985e-038
0.083160482 -0.083954617 0.57649124 1.3003171e-038
-0.062069811 -0.074741021 0.57558626 1.1064546e-038
-0.058148623 -0.075306989 0.57144111 1.0973788e-038
0.078063294 -0.075442091 0.57228571 1.1342208e-038
0.083510734 -0.075440302 0.57695228 1.0605003e-038
-0.062991224 -0.064830735 0.57543474 1.0512094e-038
-0.058777623 -0.065597802 0.57119238 1.02355e-038
0.078506492 -0.067479476 0.5715 1.235744e-038
0.083187222 -0.064893588 0.57441306 1.19883e-038
-0.063102633 -0.055266406 0.57544905 9.0366025e-039
-0.059145261 -0.055135615 0.57140011 9.4968589e-039
0.085055135 -0.054732222 0.57554233 1.1158178e-038
-0.062111083 -0.045000821 0.57647061 8.6685472e-039
-0.058638267 -0.044584244 0.57212007 8.300115e-039
0.085520245 -0.046640176 0.57603997 1.0605004e-038
-0.060712527 -0.036366541 0.57814294 8.6681885e-039
-0.056938548 -0.034712296 0.57393605 8.4837916e-039
0.084253617 -0.034321938 0.57394433 9.5904909e-039
-0.054005548 -0.025687665 0.57496876 8.7600156e-039
-0.048887178 -0.022611741 0.57092315 9.1277177e-039
0.083749235 -0.026000813 0.57534879 9.3135467e-039
-0.052156188 -0.017816132 0.57661122 1.4018071e-038
-0.047043364 -0.014599535 0.57321268 8.9444068e-039
0.077988736 -0.014123931 0.57128125 9.0365954e-039
0.082926765 -0.014408833 0.5763334 8.6685304e-039
-0.04417998 -0.0047594416 0.57481951 8.5745397e-039
-0.038347308 -0.0019715203 0.57166672 9.3121103e-039
0.069369107 -0.0031726121 0.57166672 7.6518687e-039
0.074651584 -0.0047647106 0.57277077 7.8366117e-039
0.081783228 -0.0091016442 0.57637501 7.8376907e-039
-0.044220217 0.0051493389 0.57453269 8.6667325e-039
-0.036910109 0.005517764 0.57312495 9.2206294e-039
0.059162103 0.0072096488 0.57059997 7.1912423e-039
0.065188296 0.0064816093 0.57391524 7.744056e-039
0.071331739 0.0034531897 0.57709086 7.8366131e-039
-0.061214913 0.018063158 0.57199997 1.1335313e-038
-0.050500002 0.0195 0.56999999 7.7443881e-039
-0.045839868 0.014508927 0.57392502 9.3113775e-039
-0.034663908 0.01461206 0.57481337 9.4039304e-039
-0.028335024 0.018312078 0.57130772 9.4042934e-039
0.048751753 0.019120526 0.57059997 9.2206224e-039
0.055786699 0.015849924 0.57394123 8.3897869e-039
0.062190626 0.013062249 0.57739288 8.3897897e-039
-0.053090457 0.025637828 0.57162499 9.7727199e-039
-0.048326075 0.022594975 0.57009095 9.1269764e-039
-0.032105669 0.022315733 0.57726669 1.0050379e-038
-0.026294217 0.025661517 0.57349324 1.0326614e-038
0.038546201 0.029534504 0.57066667 7.7429545e-039
0.046072152 0.025977945 0.57267648 9.0347878e-039
0.052898731 0.024766373 0.57658339 9.5886888e-039
-0.030981578 0.031489473 0.579 7.8412893e-039
-0.02420589 0.033158459 0.57358491 1.0419533e-038
-0.015335307 0.036285788 0.57266235 1.0049307e-038
-0.0050249631 0.0366772 0.57268578 9.7727115e-039
0.005080549 0.037016716 0.57274598 9.6797942e-039
0.015098797 0.036567014 0.57268071 9.4946841e-039
0.025485544 0.035806678 0.57425016 9.1255401e-039
0.034784164 0.034449872 0.57514703 8.480528e-039
0.044156119 0.032562163 0.57747209 8.112107e-039
0.050281577 0.030981578 0.579 7.8358704e-039
-0.013711516 0.043895572 0.57661098 1.0050026e-038
-0.005286667 0.044566303 0.5767749 1.014222e-038
0.004707695 0.044170745 0.5777998 1.0049307e-038
0.014823363 0.043197718 0.57846814 9.9563881e-039
0.024781441 0.041952878 0.57844001 9.40285e-039
0.031683959 0.040964406 0.57857144 8.9429551e-039
0.062652886 0.04164787 0.57800001 9.1273618e-039
-0.011173684 0.050789475 0.579 8.7690189e-039
-0.0091421045 0.050281577 0.579 1.05121e-038
-0.032083482 0.099458039 0.57750005 1.3647466e-038
-0.024576036 0.098885715 0.57740015 1.3094296e-038
-0.018576682 0.098626524 0.57758337 1.1895036e-038
-0.033180017 0.10300458 0.57594448 1.4846375e-038
-0.025479013 0.10270651 0.57268256 1.4477951e-038
-0.017213557 0.10224778 0.57222569 1.3279403e-038
0.00927612 0.10472777 0.57677776 1.1895033e-038
0.014754846 0.10670402 0.57785958 9.8656401e-039
0.020823685 0.10716579 0.579 1.023443e-038
-0.1616876 0.11814414 0.57615381 6.5433422e-039
-0.15498833 0.11635475 0.57579321 8.1070427e-039
-0.14771241 0.11606839 0.57554173 7.2769135e-039
-0.12229017 0.1149758 0.57489997 3.9571772e-039
-0.11481416 0.11489701 0.57279545 4.2330424e-039
-0.10770074 0.11577149 0.57235998 4.4174309e-039
0.01417193 0.11084473 0.57700002 0
0.11233015 0.11942796 0.578125 1.3545844e-038
-0.16232505 0.12386111 0.57451612 4.2384584e-039
-0.15819336 0.12289058 0.57231581 6.7259257e-039
0.026375622 0.12534562 0.57437503 8.8427706e-039
0.032941025 0.1249956 0.57361907 9.0271619e-039
0.045938618 0.12501921 0.57517862 9.855845e-039
0.057518817 0.12482873 0.57615006 1.0777441e-038
0.063196898 0.124736 0.57666665 1.1146582e-038
0.077772133 0.12302288 0.57715386 1.1978512e-038
0.084024161 0.12334123 0.57863641 1.2530247e-038
0.097978532 0.12165698 0.57504767 1.3269617e-038
0.10529145 0.12215854 0.57594991 1.3361814e-038
0.1147406 0.1226635 0.57475001 1.3545483e-038
0.12502681 0.12250095 0.57472914 1.3638036e-038
0.13521424 0.12244341 0.57521039 1.3545486e-038
0.14417078 0.122371 0.57464439 1.3361451e-038
0.1554464 0.12305351 0.57700002 1.3085227e-038
0.16579598 0.12461172 0.57458061 1.2808636e-038
0.17315157 0.12697197 0.57499999 1.0503395e-038
0.17437775 0.13410534 0.57431239 8.2010362e-039
0.1727035 0.14098245 0.57399994 7.6475037e-039
-0.014426317 -0.12208038 0.5836364 1.0417705e-038
-0.005709996 -0.12409943 0.58649999 1.0233685e-038
0.042228069 -0.12057895 0.57999998 1.6413343e-038
-0.032555498 -0.11163025 0.58286667 1.493567e-038
-0.025558269 -0.11593301 0.5802142 1.1892124e-038
-0.01571109 -0.11937375 0.58049995 1.3089585e-038
-0.0083989035 -0.11935855 0.58024997 1.6873587e-038
0.045263235 -0.11852607 0.58036363 1.6782116e-038
0.05809233 -0.11423048 0.58091658 1.5676843e-038
0.063820414 -0.1117253 0.58305556 1.5584647e-038
-0.044629741 -0.10692789 0.58291656 1.0877974e-038
-0.037140351 -0.10904679 0.57999998 1.3182525e-038
0.066514552 -0.10776417 0.58127582 1.5400258e-038
0.073818177 -0.10304062 0.58072728 1.5031116e-038
0.077297658 -0.098702043 0.58100003 1.4570498e-038
-0.064614035 -0.081403509 0.57999998 1.0139685e-038
-0.065122806 -0.07529825 0.57999998 1.0231536e-038
0.087996222 -0.073014498 0.58064699 1.1250735e-038
-0.07107313 -0.062603176 0.58500004 1.0505591e-038
-0.067791373 -0.064681821 0.58286208 1.0140781e-038
0.088339396 -0.065331154 0.58234483 1.1527322e-038
0.091553427 -0.061954379 0.58545452 1.1065987e-038
-0.071277849 -0.05477215 0.58775002 1.0322278e-038
-0.067401171 -0.054605257 0.5822857 9.404299e-039
0.088933527 -0.057423193 0.58155555 1.0881587e-038
0.091466837 -0.055282697 0.58400005 1.0605003e-038
-0.071209647 -0.04670582 0.58863628 1.0230804e-038
-0.0668488 -0.045206331 0.58366662 9.1287967e-039
0.088303983 -0.043626163 0.58217394 1.0051835e-038
0.091789588 -0.045123771 0.58456677 9.867082e-039
-0.064463302 -0.034664776 0.58396226 8.8518553e-039
0.088957585 -0.035913594 0.58235711 9.7748864e-039
0.092095517 -0.034809597 0.5849393 9.5908566e-039
-0.062688969 -0.025908098 0.58658826 9.0362465e-039
-0.058457538 -0.024104662 0.5813182 9.5897776e-039
0.087955259 -0.024557196 0.58120692 9.1287939e-039
0.091810524 -0.0294 0.588 9.5883399e-039
-0.056982458 -0.019842105 0.57999998 1.5767246e-038
0.087754823 -0.017079502 0.58296657 9.1284309e-039
0.090109646 -0.013902632 0.58700001 8.2997577e-039
-0.048333332 -0.0050877193 0.57999998 1.1248563e-038
0.078487486 -0.0028229244 0.58226663 7.8366159e-039
0.08252541 -0.0042611016 0.58546877 7.9288116e-039
0.068802632 0.0096833333 0.58099997 8.0206471e-039
0.076393418 0.0053367149 0.58662915 8.1135629e-039
0.080964997 0.0042306143 0.58789998 8.1132056e-039
-0.041801985 0.017418602 0.58299994 8.3886855e-039
-0.038112093 0.018437032 0.58149999 8.573811e-039
0.06611827 0.0159775 0.58390731 8.943325e-039
0.072793886 0.014135281 0.58831698 8.4816252e-039
-0.043734103 0.024600949 0.58756065 8.1121042e-039
-0.035934605 0.025625478 0.58283335 9.8659862e-039
0.057933461 0.025461709 0.58083785 1.0050029e-038
0.064521447 0.023634546 0.58548385 9.7734514e-039
0.070783332 0.02015 0.58899999 9.3124649e-039
-0.043050647 0.033048447 0.58842856 1.2631509e-038
-0.036381066 0.033157088 0.58496076 1.5582154e-038
0.037626952 0.038459811 0.58036357 9.034422e-039
0.045500148 0.037109572 0.58198041 8.7578478e-039
0.055124488 0.034877498 0.58412254 8.6652878e-039
0.06255237 0.036079243 0.58756822 8.7578492e-039
-0.012719299 0.049350876 0.57999998 8.029677e-039
-0.0032561403 0.049045615 0.57999998 1.0602842e-038
0.0063624554 0.048604734 0.58019996 1.0510285e-038
0.015709955 0.047461655 0.58032548 1.0325894e-038
0.025190653 0.046637744 0.58113796 1.0048587e-038
0.035112001 0.045377471 0.58368182 9.6801642e-039
0.044799067 0.044673897 0.58731258 9.7723626e-039
0.053495865 0.042480286 0.58921885 9.6801642e-039
0.061863005 0.040676165 0.58449996 9.311746e-039
-0.011701755 0.051725145 0.57999998 1.3560353e-038
-0.0039805826 0.053900335 0.58095467 1.0879791e-038
0.0051055783 0.055140443 0.58198023 1.1156016e-038
0.015263949 0.054803096 0.58253282 1.0971266e-038
0.025080882 0.054953203 0.58489001 1.0878707e-038
0.034579758 0.054714471 0.58785009 1.0786873e-038
0.042597137 0.051288713 0.5898 1.0786875e-038
-0.00071684207 0.062147368 0.58359998 1.1616282e-038
0.0054290625 0.064847127 0.58394027 1.1801391e-038
0.014892572 0.064862266 0.58539039 1.1617358e-038
0.024747243 0.064954005 0.58766043 1.1432607e-038
0.032559875 0.064402267 0.58914894 1.1340051e-038
0.0060145161 0.074768312 0.58557266 1.2170891e-038
0.014920391 0.075108446 0.58646649 1.1986141e-038
0.024495784 0.07498581 0.58856082 1.180139e-038
0.030938771 0.071707539 0.58979994 1.1616997e-038
-0.022141153 0.088645548 0.58925003 1.1802826e-038
-0.019084211 0.088715792 0.588 1.1893944e-038
0.0065778601 0.084957205 0.58439398 1.1801388e-038
0.014854532 0.085225657 0.58565128 1.198614e-038
0.024390135 0.084890917 0.5885933 1.1986142e-038
-0.034405809 0.097102717 0.58141857 1.0974878e-038
-0.024690479 0.094535902 0.58511865 1.1803193e-038
-0.018102599 0.094903871 0.58268964 1.1526608e-038
0.0081730727 0.093847394 0.58348471 1.1157103e-038
0.01506169 0.095307231 0.58384025 1.1249296e-038
0.024717228 0.094975516 0.58764029 1.1710276e-038
0.032210026 0.097796448 0.58934784 1.1987226e-038
-0.16013773 0.10967632 0.58700001 1.0962553e-038
-0.15418036 0.10944447 0.58576924 9.3055887e-039
-0.14811043 0.10871199 0.58922219 4.9749192e-039
-0.03612281 0.10056725 0.57999998 1.355599e-038
0.0096666673 0.10073684 0.57999998 1.1249659e-038
0.016038654 0.10230003 0.5805999 1.1249655e-038
0.025374567 0.10437043 0.58337355 1.0510651e-038
0.034067981 0.10493903 0.58744991 8.7600156e-039
-0.1620682 0.11299887 0.58547628 7.7386315e-039
-0.15468475 0.11191593 0.58214891 9.5814399e-039
-0.14808649 0.11182866 0.58416665 6.6315511e-039
-0.12422421 0.11228472 0.58538717 1.4697267e-039
-0.11484313 0.11291724 0.58247054 2.0207396e-039
-0.10753605 0.11295543 0.58100003 1.6533977e-039
0.036683336 0.11005 0.58899999 0
0.085956141 0.11941906 0.58866668 1.1055106e-038
0.094659209 0.11987236 0.58650005 1.234585e-038
0.10498348 0.11921722 0.58411998 1.3083061e-038
0.11636744 0.11891806 0.5826 1.3269615e-038
0.12509374 0.11846977 0.58468753 1.3453286e-038
0.1356011 0.11900995 0.58472419 1.3361094e-038
0.14538945 0.11953132 0.58555174 1.3084505e-038
0.15583444 0.11910849 0.58568424 1.3269261e-038
0.16476582 0.11911109 0.58588463 1.3269621e-038
0.17276724 0.11952543 0.58733332 1.3269625e-038
0.025075184 0.12370797 0.58880645 6.446064e-039
0.03722176 0.12415933 0.58475 8.1044895e-039
0.043885827 0.12430811 0.58384204 8.7502191e-039
0.054801457 0.1232368 0.58476311 9.5799756e-039
0.064067759 0.12200539 0.5831874 1.0317541e-038
0.075824589 0.12214996 0.58574295 1.1332054e-038
0.084835775 0.12220582 0.5832181 1.1884873e-038
0.092374854 0.12154853 0.58466667 1.2161469e-038
0.1038398 0.12066412 0.5823077 1.3361811e-038
0.11905263 0.12057895 0.57999998 1.336145e-038
0.12520245 0.12062053 0.58019996 1.3454004e-038
0.13356794 0.12047465 0.58218187 1.3545483e-038
0.14703509 0.12106911 0.58039993 1.3085227e-038
0.15551116 0.12138148 0.58170587 1.3084867e-038
0.16447622 0.12118092 0.58132261 1.3177421e-038
0.17478617 0.12223963 0.58440542 1.2900832e-038
-0.07356783 -0.050718129 0.59200001 1.0506672e-038
-0.0733326 -0.047562432 0.59150004 1.0781822e-038
-0.070942976 -0.032863453 0.59466666 9.7709095e-039
-0.068548024 -0.032197367 0.59200001 9.4950513e-039
-0.06726893 -0.027144788 0.59176475 9.2191944e-039
0.078100353 0.0094385957 0.59119999 8.2972395e-039
0.080355264 0.00985 0.59100002 8.5741936e-039
0.077721633 0.011251462 0.59200001 8.2043251e-039
-0.051064692 0.02819583 0.59249997 8.7581953e-039
-0.048287842 0.027410526 0.59106666 8.1131804e-039
-0.05037193 0.030638596 0.59200001 9.3109977e-039
-0.048186436 0.032044973 0.59181821 9.681955e-039
0.04873158 0.049249999 0.59100002 1.0509926e-038
0.055859409 0.046658002 0.59201747 1.0049308e-038
0.063238919 0.046450924 0.59321052 9.6805257e-039
0.039260674 0.057766963 0.59149998 1.0787594e-038
0.045610957 0.055702846 0.59194553 1.0787235e-038
0.054897413 0.054685317 0.59462667 1.0694679e-038
0.06257911 0.054608129 0.59637785 9.9578343e-039
0.037403267 0.065329865 0.59162772 1.1340051e-038
0.045186091 0.065256625 0.5945583 1.1247857e-038
0.054292154 0.06435515 0.59723294 1.0971269e-038
0.0614595 0.060934067 0.59883332 9.9578329e-039
-0.027848246 0.079341225 0.59899998 1.1710276e-038
0.029549999 0.078281574 0.59100002 1.1709197e-038
0.035192367 0.075262576 0.59261703 1.1524803e-038
0.044870906 0.075047761 0.59650034 1.1524441e-038
0.052012753 0.073588543 0.59893334 1.1248574e-038
-0.025468117 0.084992886 0.59612674 1.1802829e-038
0.029549997 0.085021056 0.59100002 1.180175e-038
0.034751665 0.085128516 0.59326708 1.1801031e-038
0.04518025 0.085049719 0.59711456 1.1801029e-038
0.051406238 0.08507368 0.59866661 1.1617358e-038
-0.031388484 0.094163485 0.59637505 1.1710632e-038
-0.028613858 0.092087194 0.59446663 1.1434046e-038
0.029549999 0.090723686 0.59100002 1.1893943e-038
0.035662383 0.0941649 0.5924263 1.1986502e-038
0.044943891 0.095179684 0.5968163 1.20787e-038
0.051450439 0.099225 0.59850001 1.1709198e-038
-0.16459246 0.10941352 0.5934 7.370226e-039
-0.1515497 0.10743303 0.5916667 4.6061395e-039
-0.1328596 0.10767963 0.59459102 2.3019929e-039
-0.12672143 0.10859528 0.59261906 7.3647903e-040
0.039271988 0.10300625 0.59166676 1.0327341e-038
0.045416363 0.10424218 0.5934999 8.2983171e-039
0.052651513 0.10300336 0.59721863 9.9582028e-039
0.089850001 0.10718948 0.59899998 1.6963622e-038
0.094709203 0.10835628 0.59834486 1.8165793e-038
0.10293143 0.10922631 0.59816664 1.8720418e-038
-0.17048246 0.11225438 0.59799999 0
-0.16719811 0.11175901 0.59457141 3.3175895e-039
-0.13134605 0.11079606 0.59299999 9.1835496e-041
-0.12595624 0.11062194 0.59144449 5.5101298e-040
0.027421458 0.11923253 0.59676933 2.2966049e-039
0.031578068 0.11915848 0.59666663 2.4820695e-039
0.047622107 0.11596824 0.59660006 4.0511651e-039
0.052585576 0.11888402 0.59355557 7.2761736e-039
0.069357894 0.11927456 0.59899998 8.8431322e-039
0.073133975 0.11944291 0.59745461 9.5806972e-039
0.086492158 0.11790971 0.5958823 8.9356921e-039
0.095884942 0.1156676 0.5968675 1.1427181e-038
0.10454956 0.115271 0.59584874 1.3274345e-038
0.11468907 0.11688552 0.59381253 1.1239502e-038
0.12506188 0.11589527 0.59617776 1.2714634e-038
0.13488665 0.11651501 0.59567308 1.3268532e-038
0.14510517 0.11719165 0.59453988 1.3545123e-038
0.15478954 0.11758614 0.59481245 1.3545126e-038
0.16509944 0.11781283 0.59643745 1.3361814e-038
0.17466095 0.11852183 0.59589994 1.3177784e-038
0.18067105 0.11887632 0.597 1.3361084e-038
0.024825828 0.12158367 0.59461111 4.2330424e-039
0.035079859 0.12197992 0.59682041 5.3386557e-039
0.04516935 0.12196656 0.59502262 6.9981574e-039
0.054932207 0.12133124 0.5925312 8.5665481e-039
0.066238739 0.12138486 0.59545004 9.6728928e-039
0.07348375 0.12147236 0.59475988 1.040938e-038
0.081205264 0.1207056 0.5988 1.0317906e-038
0.095840812 0.12112954 0.59400004 1.2252943e-038
0.10923684 0.12016053 0.59299999 1.3083425e-038
0.11079737 0.12016053 0.59299999 1.3084141e-038
0.17976315 0.12036316 0.59399998 1.3269987e-038
0.058404915 0.067279823 0.60199994 9.9585517e-039
0.061840735 0.065703563 0.60643756 1.0418814e-038
-0.033624563 0.078388087 0.60231572 1.1525877e-038
-0.029210526 0.078684211 0.60000002 1.1618442e-038
0.055664595 0.075477682 0.60245627 1.0696117e-038
0.060365792 0.076392099 0.60900003 1.0789038e-038
-0.033592291 0.084711529 0.60444677 1.0787952e-038
-0.029999999 0.084342107 0.59999996 1.1525883e-038
0.055670973 0.084500261 0.60408497 1.0697197e-038
0.060365792 0.081200004 0.60900003 1.1340416e-038
-0.10244276 0.097106576 0.60825002 1.9180312e-038
-0.098650873 0.097048245 0.60900003 1.8812618e-038
-0.033246551 0.092004098 0.60533333 1.0327337e-038
-0.029999999 0.090000004 0.60000002 1.1801391e-038
0.055167943 0.095008932 0.60270512 1.161808e-038
0.061574504 0.097783968 0.60826671 1.2356011e-038
0.058060467 0.10186245 0.60168749 1.2540399e-038
0.063070692 0.10216658 0.60717636 1.1342588e-038
0.086223505 0.10529612 0.60700017 1.1799589e-038
0.095009118 0.10451432 0.60476291 1.8812974e-038
0.10518656 0.10577164 0.604559 1.9181757e-038
0.11477665 0.10597944 0.60513902 1.9273232e-038
0.12205263 0.10326784 0.60788894 2.0103354e-038
0.026396615 0.1184495 0.60014284 1.2864144e-039
0.036822293 0.1192492 0.60108334 2.9437581e-039
0.042959556 0.11971627 0.60299993 4.8776845e-039
0.059100434 0.11926886 0.60699999 7.0910635e-039
0.064301804 0.11884294 0.60344833 8.0133827e-039
0.076226465 0.11832944 0.60403341 8.9349733e-039
0.082639724 0.11772117 0.60220695 8.7505792e-039
0.090425879 0.11834342 0.60050005 7.7371588e-039
0.10877192 0.11175439 0.59999996 1.6875788e-038
0.11434513 0.11296888 0.60357904 1.3275798e-038
0.12492 0.1135387 0.60442311 1.1054745e-038
0.13554361 0.11371003 0.60380769 1.2992663e-038
0.14459784 0.11450636 0.60396433 1.3545125e-038
0.15513366 0.11435387 0.60484093 1.3453649e-038
0.16473782 0.11469158 0.6029523 1.3268904e-038
0.17520364 0.11566556 0.60391903 1.3085228e-038
0.18169233 0.11621554 0.60404348 1.3177067e-038
0.044325005 0.12032981 0.60499996 4.6968834e-039
0.057936523 0.12066603 0.60600001 7.829346e-039
0.064705536 0.12134872 0.60046148 9.2119147e-039
0.079473689 0.12105263 0.60000002 1.040867e-038
0.066280968 0.066452004 0.61240548 1.0786883e-038
0.064431779 0.074854709 0.61321533 1.1064905e-038
-0.095021926 0.089592099 0.61900002 1.8536029e-038
-0.038004253 0.086565129 0.61105001 6.3582054e-039
0.059038017 0.087219305 0.61000007 1.1157463e-038
0.064244457 0.085443333 0.61500001 1.143369e-038
-0.11022544 0.096650876 0.61900002 1.9089201e-038
-0.1031243 0.094413623 0.61429632 1.9181035e-038
-0.09751673 0.092991523 0.61574072 1.9088839e-038
-0.036900878 0.091815189 0.611 6.2728677e-039
0.059394736 0.090429828 0.61000001 1.115747e-038
0.065631554 0.094601035 0.61402696 1.2264173e-038
0.071613453 0.096332163 0.61780959 1.2541122e-038
0.085758209 0.097581051 0.6152128 1.5401733e-038
0.09500204 0.096801877 0.61554092 1.8352358e-038
0.10462788 0.098522767 0.61616135 1.8813339e-038
0.1156392 0.097762324 0.61591667 1.9089924e-038
0.1247185 0.097379625 0.61480856 1.9735292e-038
0.133461 0.097557984 0.61739284 2.001152e-038
0.067159869 0.10120285 0.61125004 1.2079431e-038
0.075025789 0.10137455 0.61539996 7.7451574e-039
0.084046841 0.10147943 0.61165506 1.0973081e-038
0.095258489 0.10091963 0.61057138 1.8720781e-038
0.10494834 0.10139558 0.61137938 1.8998086e-038
0.1149016 0.10124116 0.61114806 1.9274315e-038
0.12483731 0.10091033 0.61105263 2.0103353e-038
0.13087896 0.10071754 0.61400002 2.1116782e-038
0.16838662 0.1088296 0.61724997 1.3269258e-038
0.17177433 0.10869364 0.61725003 1.3085227e-038
0.028644133 0.1183618 0.61615384 4.5917748e-040
0.035019469 0.11894854 0.61333334 1.1942202e-039
0.044960149 0.11818773 0.61266667 2.3905928e-039
0.054929301 0.11812712 0.61360532 4.8773258e-039
0.066214204 0.11726128 0.61540002 6.7219306e-039
0.074244477 0.11629138 0.61462748 6.9070422e-039
0.083798639 0.11528316 0.6163125 5.3400948e-039
0.11901386 0.11365668 0.61059999 5.8050456e-039
0.12484369 0.11222861 0.61433333 6.9059786e-039
0.1347966 0.11192322 0.61344457 1.0870347e-038
0.14518771 0.11198345 0.6137858 1.2991941e-038
0.1543382 0.11216313 0.61384368 1.3268898e-038
0.16575047 0.11189854 0.61450011 1.3177062e-038
0.17518668 0.11250228 0.61404085 1.3177423e-038
0.18219779 0.11222741 0.61475003 1.3085586e-038
0.033194736 0.12043615 0.61240005 1.5619209e-039
0.049228072 0.12039474 0.61000001 5.067454e-039
0.05333041 0.1205731 0.61000007 6.4464214e-039
-0.033748593 0.23874807 0.61760008 2.6751208e-039
-0.027837111 0.23785743 0.61804354 1.9368397e-039
-0.034504358 0.24418274 0.61410809 2.0293969e-039
-0.028564308 0.24312076 0.61443478 3.3215706e-039
0.069107309 0.077814318 0.62033331 1.1341855e-038
0.070557542 0.077755794 0.62160003 1.1250378e-038
-0.12119298 0.089792982 0.62800002 1.7145826e-038
-0.11426065 0.089015491 0.62834996 1.8346206e-038
-0.10480317 0.088436157 0.62755167 2.010191e-038
-0.097043298 0.08710026 0.62399995 1.8903729e-038
0.068844505 0.083809137 0.62041658 1.1434052e-038
0.07277476 0.085989013 0.62537509 1.171064e-038
0.085737705 0.087939963 0.6276924 1.3283031e-038
0.092751324 0.087254137 0.62622219 1.7615148e-038
0.11639298 0.089915536 0.62885714 1.9181399e-038
0.1258146 0.089056537 0.62825 1.9642739e-038
0.13427934 0.089089572 0.62822229 2.0195913e-038
0.14069737 0.089935966 0.62900001 2.0011527e-038
-0.13149297 0.094391227 0.62199998 2.0468886e-038
-0.12453317 0.093240738 0.62520421 1.9362534e-038
-0.1153048 0.093807898 0.62484127 1.973349e-038
-0.10596415 0.092316061 0.62213886 1.9272872e-038
-0.099767104 0.090498686 0.62150002 1.9088476e-038
0.076270446 0.094638295 0.62356919 1.244893e-038
0.084190413 0.093393922 0.62265575 1.3190111e-038
0.094605967 0.091823921 0.62115788 1.7799547e-038
0.1058695 0.094714679 0.62358338 1.8721141e-038
0.11447951 0.093431011 0.62454236 1.8905175e-038
0.12530085 0.092803203 0.62400013 1.9642739e-038
0.13523738 0.09303055 0.62289095 2.0104077e-038
0.14131366 0.092034958 0.62614286 2.0195913e-038
0.077372074 0.10080335 0.62116665 8.0238953e-039
0.12752594 0.10878468 0.62394106 1.1985812e-038
0.13429724 0.10798446 0.62429273 7.9230298e-039
0.14520618 0.10882638 0.62496549 1.0317549e-038
0.15530144 0.10844113 0.62641025 1.299266e-038
0.16310401 0.10784105 0.62771428 1.3177062e-038
0.17726755 0.10864163 0.62238461 1.2992671e-038
0.1833127 0.10870543 0.62537503 1.3084872e-038
0.029912282 0.11692982 0.62 0
0.035794817 0.11794806 0.62113047 4.5917748e-040
0.044434961 0.11649947 0.62542862 3.6734198e-040
0.055321977 0.11567294 0.62370265 1.2867731e-039
0.06411837 0.11482604 0.62402439 3.0363111e-039
0.076664083 0.113876 0.62475002 4.0490127e-039
0.082188457 0.11379576 0.6237222 4.2351976e-039
0.12687457 0.11080942 0.62074995 5.2497307e-039
0.13413519 0.11070834 0.62109995 8.1034274e-039
0.14383782 0.11060384 0.62112498 1.2253643e-038
0.15503633 0.11062957 0.62171423 1.3084141e-038
0.16304854 0.11066637 0.62199998 1.3360732e-038
0.17585087 0.11062924 0.62333333 1.308487e-038
0.18359086 0.11083923 0.62157142 1.280793e-038
-0.031298246 0.22916578 0.62599999 2.4914722e-039
-0.023971107 0.22753988 0.62624067 1.568769e-039
-0.019151753 0.227083 0.62379998 3.0828566e-044
-0.033047315 0.23429717 0.62244695 3.3219406e-039
-0.025498621 0.2334694 0.62256885 1.5684159e-039
0.087154828 0.079444125 0.63690001 7.0104636e-039
0.09115088 0.079407454 0.63750005 1.789174e-038
-0.11412944 0.086723052 0.63028574 1.1699784e-038
-0.10442465 0.084539659 0.63053834 1.3638427e-038
-0.098311655 0.08299236 0.63014287 1.3915715e-038
0.077381425 0.084186405 0.63586837 1.1526615e-038
0.084811062 0.083786853 0.63226014 8.8561881e-039
0.094136447 0.08469633 0.63290906 1.7891379e-038
0.105003 0.088020213 0.63531578 1.8721502e-038
0.11544235 0.08691331 0.6346727 1.8905174e-038
0.12509741 0.084346637 0.63473338 1.9274315e-038
0.13463765 0.08484906 0.63375813 2.019591e-038
0.14368613 0.08673507 0.63356411 2.0103717e-038
-0.17044649 0.098590344 0.63499999 9.49365e-039
-0.1646149 0.097654819 0.63616663 1.2993428e-038
-0.15897733 0.097874708 0.63516665 1.2345875e-038
-0.14662807 0.09849824 0.63800001 1.2623215e-038
0.07847368 0.09007895 0.63 1.2449647e-038
0.099305257 0.090936847 0.63599998 1.8351639e-038
0.104479 0.091318689 0.63123071 1.8720784e-038
0.11113713 0.090126611 0.6303333 1.8812264e-038
0.14470655 0.090987563 0.63072729 2.0379224e-038
-0.17073509 0.1006614 0.634 9.409715e-039
-0.16962281 0.1006614 0.634 1.0331671e-038
-0.14823012 0.10012486 0.6376667 2.0558573e-038
0.063042112 0.10990527 0.63599998 9.3153529e-039
0.083387718 0.10913157 0.63800001 5.5101718e-040
0.13755539 0.10563566 0.63384998 1.2999948e-038
0.14440569 0.10561905 0.63491833 8.6584144e-039
0.15449435 0.10567664 0.63499999 1.1240583e-038
0.1663778 0.10686422 0.63304543 1.3084868e-038
0.17550676 0.10746898 0.63464993 1.3268899e-038
0.1841405 0.10620569 0.63662964 1.3269261e-038
0.057689033 0.11291886 0.63235712 1.1974642e-039
0.065636978 0.11210527 0.63583332 7.3576297e-040
0.074710362 0.11250183 0.63458329 1.7466681e-039
0.082289338 0.11130174 0.63615388 1.4700854e-039
-0.026081497 0.22478467 0.63018185 2.3088662e-039
0.087922171 0.075789817 0.64378262 9.4993757e-039
0.091485798 0.075890072 0.64331251 1.7245655e-038
0.10987456 0.079132453 0.64899999 1.9273594e-038
0.11656833 0.078676537 0.64704764 1.8628227e-038
0.12504053 0.077121206 0.6455636 1.899773e-038
0.13445596 0.077395439 0.64475602 2.0472854e-038
0.14408211 0.07853996 0.64687502 2.0380661e-038
0.15367179 0.079112135 0.64883333 2.019627e-038
0.077473685 0.080280699 0.63999999 1.1249334e-038
0.097567797 0.083681338 0.64399999 1.7891022e-038
0.105165 0.083362259 0.64462692 1.8905533e-038
0.1143714 0.082334384 0.64302218 1.8721143e-038
0.12201315 0.080827408 0.64099997 1.8905533e-038
0.13678728 0.081134066 0.64083332 2.0472137e-038
0.14573482 0.0827673 0.641909 2.0288107e-038
0.1529806 0.083550148 0.6436429 2.0563612e-038
-0.17260499 0.095832989 0.64463997 2.7640668e-039
-0.16519448 0.095343545 0.64429402 1.2623177e-038
-0.15510435 0.096679315 0.64364302 1.2345863e-038
-0.14507334 0.096455403 0.64559519 1.2438421e-038
-0.13883714 0.09692017 0.64866662 1.7051843e-038
-0.15438597 0.10105264 0.63999993 1.6131706e-038
0.068491235 0.10947368 0.63999999 0
0.075714394 0.10806859 0.64321619 2.3045376e-039
0.081533335 0.10745775 0.64250004 6.4284847e-040
0.14629515 0.10283239 0.64276922 1.1519385e-038
0.15511109 0.10359147 0.64534611 9.1186583e-039
0.16507326 0.10408901 0.64342856 1.2623883e-038
0.17462708 0.10440189 0.64400005 1.3361094e-038
0.18306437 0.10418191 0.64462495 1.3269258e-038
0.074678853 0.11086559 0.64011103 1.102026e-039
0.081745028 0.11030409 0.64266664 9.1835496e-040
0.086939774 0.068859503 0.65783328 8.2071767e-039
0.11850438 0.06994649 0.65899998 1.8259444e-038
0.12558819 0.069020264 0.65804762 1.9734209e-038
0.13385314 0.069092162 0.65843743 2.0656168e-038
0.14265437 0.06988281 0.65839994 2.0565051e-038
0.087891556 0.071606703 0.65307134 9.6816187e-039
0.097124197 0.07720571 0.65550005 1.7707347e-038
0.10514644 0.077078126 0.65474516 1.8628944e-038
0.11493427 0.074525595 0.65423447 1.8443834e-038
0.12457757 0.072311379 0.65325707 1.9089205e-038
0.13539682 0.073015459 0.65451157 2.0564691e-038
0.14514327 0.074145362 0.65419996 2.0656168e-038
0.15502773 0.075367548 0.65456897 2.0656885e-038
0.16174424 0.076149069 0.65706247 2.1024227e-038
-0.17265029 0.089215495 0.65899998 9.1835496e-041
0.098070174 0.080394737 0.64999998 1.7982859e-038
0.10263158 0.080394737 0.64999998 1.8812976e-038
-0.17268033 0.092194609 0.6567142 2.6718572e-039
-0.16568632 0.093014471 0.65524989 1.234694e-038
-0.15425621 0.092902832 0.65393102 1.23455e-038
-0.14557163 0.093485579 0.65347612 1.2438051e-038
-0.13714057 0.09475109 0.65438461 1.2623536e-038
0.15318702 0.09939263 0.65799999 1.4747613e-038
0.1872033 0.099402338 0.65755558 1.2809734e-038
0.19076052 0.099126317 0.65700001 1.1244588e-038
0.14885779 0.10203051 0.65633327 1.936144e-038
0.15525658 0.10132397 0.65493745 8.5658573e-039
0.16390364 0.10163697 0.65604758 1.0410469e-038
0.17459695 0.10189647 0.65592313 1.3176705e-038
0.18517233 0.10202693 0.65378785 1.3269621e-038
0.1909893 0.10211351 0.65620005 1.3087399e-038
0.15637326 0.058688447 0.66683334 1.6508448e-038
0.085326038 0.065259628 0.6627714 9.2166371e-039
0.10773779 0.068478271 0.66723073 1.743004e-038
0.11534132 0.06661582 0.66418362 1.7890661e-038
0.12436603 0.064806469 0.6639272 1.9734929e-038
0.13536495 0.066270187 0.66405553 2.0840556e-038
0.14502567 0.067665942 0.66503322 2.1209693e-038
0.15564559 0.065270528 0.66463989 1.8445273e-038
0.16287456 0.067746237 0.66414279 1.9734576e-038
0.084074564 0.070158772 0.66100001 7.6403024e-039
0.096928015 0.074380554 0.66408694 1.7522957e-038
0.10482166 0.072342813 0.66361535 1.8167606e-038
0.11295687 0.070985235 0.66150004 1.7983214e-038
0.14817701 0.070665084 0.66139996 2.1117499e-038
0.15490414 0.070779867 0.66138905 2.0933468e-038
0.16388325 0.07231088 0.66320002 2.037958e-038
-0.17180669 0.088111937 0.6626001 0
-0.16528177 0.08833085 0.66653836 1.114805e-038
-0.15673859 0.089202546 0.66755551 1.234622e-038
-0.14500739 0.088959396 0.66657144 1.2438048e-038
-0.13708085 0.089630269 0.66783333 1.2622445e-038
-0.12451208 0.088873878 0.66592854 1.2622803e-038
-0.11940351 0.089115791 0.66399997 1.2530604e-038
-0.17014562 0.090008773 0.662 5.0646262e-039
-0.16420849 0.09119574 0.66324997 1.2530614e-038
-0.15511076 0.091064595 0.66436845 1.2437697e-038
-0.14473704 0.091709271 0.66283339 1.2530248e-038
-0.13426237 0.092204481 0.66352636 1.2438054e-038
-0.12658268 0.092058539 0.66500008 1.2438057e-038
0.15603313 0.098670371 0.66329414 1.1887459e-038
0.16515063 0.098078333 0.66442865 8.3810961e-039
0.17436841 0.098321952 0.66483331 1.1609021e-038
0.18569411 0.097776294 0.66588569 1.2901203e-038
0.16736811 0.10098763 0.66122222 1.0687773e-038
0.17365089 0.10033999 0.66119999 1.225438e-038
0.18148507 0.10030965 0.66100001 1.289976e-038
0.14354299 0.039310526 0.67899996 1.816614e-038
0.1455922 0.045855604 0.67772096 1.4664514e-038
0.15026513 0.047420397 0.67575002 1.7337841e-038
0.086364031 0.055392109 0.67899996 1.1988303e-038
0.11451648 0.059375376 0.67592853 1.7706988e-038
0.12061052 0.059714034 0.67400002 1.9550178e-038
0.13937369 0.058965791 0.67900002 2.1945812e-038
0.14588422 0.055126488 0.67577147 1.5586847e-038
0.15218081 0.05567525 0.67127776 1.5402451e-038
0.096690476 0.067641109 0.67685711 1.7798462e-038
0.10491203 0.065161318 0.67406237 1.696906e-038
0.11415979 0.06239203 0.67194283 1.7430397e-038
0.12588476 0.060782317 0.67276925 2.0103353e-038
0.13552114 0.062022053 0.67565715 2.1024945e-038
0.14490128 0.063047297 0.67335409 2.0749434e-038
0.15178926 0.062112387 0.67037499 1.733929e-038
0.095996633 0.071131825 0.67327785 1.742968e-038
0.100575 0.070578508 0.67050004 1.8075048e-038
-0.17052281 0.085259646 0.67500001 0
-0.165483 0.086039416 0.67365217 9.028999e-039
-0.15522189 0.088045754 0.67336667 1.2345853e-038
-0.14420369 0.087696455 0.67677271 1.2530246e-038
-0.13511905 0.088204548 0.67460001 1.2714641e-038
-0.12509817 0.088587239 0.67499995 1.2530604e-038
-0.11758658 0.088694118 0.67769998 1.2345849e-038
-0.12037543 0.090726316 0.676 1.2713547e-038
-0.11800351 0.090726316 0.67599994 1.2252205e-038
0.1583041 0.097187527 0.67422229 2.0558888e-038
0.16481914 0.096124351 0.67675006 9.1193912e-039
0.17626898 0.096089184 0.67442846 1.0226455e-038
0.18302323 0.094744533 0.67425728 1.2440222e-038
0.13243575 0.029012719 0.68550003 1.5030041e-038
0.13514203 0.034820929 0.68408298 1.4018426e-038
