# .PCD v0.7 - Point Cloud Data file format
VERSION 0.7
FIELDS x y z rgb
SIZE 4 4 4 4
TYPE F F F F
COUNT 1 1 1 1
WIDTH 963
HEIGHT 1
VIEWPOINT 0 0 0 1 0 0 0
POINTS 963
DATA ascii
0.015114876 -0.015111641 0.52220625 8.6674514e-039
0.025226602 -0.015128103 0.52281797 8.7596498e-039
0.035009235 -0.015195829 0.52508217 8.5756187e-039
0.044730008 -0.015498755 0.52781743 8.2064802e-039
0.052038185 -0.017749663 0.52930772 7.9306122e-039
-0.0031714614 -0.0066280556 0.52936196 8.2050327e-039
0.0050846469 -0.0050851386 0.52755374 7.928806e-039
0.015226164 -0.0050698491 0.52599227 7.7447804e-039
0.02503127 -0.0051464969 0.52649128 7.9291731e-039
0.034100186 -0.0059288307 0.52834058 8.2061229e-039
0.042501144 -0.0084592672 0.52939135 8.3908757e-039
0.0067524631 0.0014653509 0.5295769 7.9284556e-039
0.015323305 0.0018580341 0.52934086 7.5603906e-039
0.02431087 0.001426535 0.52932137 7.5603906e-039
0.030219298 0.0004649123 0.52999997 7.7447804e-039
0.08743412 0.077766456 0.5243333 1.8721502e-038
0.093801908 0.076041169 0.52757323 1.8812248e-038
0.085851297 0.082520805 0.52067745 1.9274673e-038
0.091214299 0.082074888 0.52092302 1.6323315e-038
0.028770177 0.10997632 0.52899998 1.8812622e-038
0.037920021 0.10777958 0.52490908 1.9642735e-038
0.045111723 0.10658593 0.52424133 2.001152e-038
0.055084288 0.10466589 0.52537936 2.0288107e-038
0.065157615 0.10397512 0.52464277 1.9920043e-038
0.071558207 0.10374188 0.52603853 1.8352722e-038
0.088578247 0.10422883 0.5247916 1.3653629e-038
0.094881475 0.1063994 0.52599984 1.7984664e-038
0.10298362 0.10841072 0.52795458 1.8446361e-038
-0.00083543861 0.11902561 0.52879995 1.9273592e-038
0.0057246564 0.11817281 0.52585453 1.9457983e-038
0.015753973 0.11588944 0.52381825 1.9458345e-038
0.024921106 0.11326923 0.52271754 1.9550901e-038
0.034248944 0.11097685 0.52106667 1.9919325e-038
0.040622514 0.11091257 0.52033335 2.0103357e-038
0.09669818 0.11167798 0.52116132 1.8906256e-038
0.10508529 0.11473943 0.52381533 1.8076858e-038
0.11375596 0.11788316 0.5275777 1.8168331e-038
0.12126637 0.1194073 0.52966666 7.9241088e-039
-0.13163044 0.12863353 0.52823079 8.5647614e-039
-0.12507986 0.12754746 0.52567178 1.1700116e-038
-0.11509287 0.12761585 0.524647 1.2806835e-038
-0.10493767 0.1277398 0.52442253 1.2806469e-038
-0.095000982 0.12800601 0.5250299 1.262171e-038
-0.085662186 0.12800984 0.52656907 1.3083049e-038
-0.075276449 0.12837265 0.5253616 1.3359633e-038
-0.064794734 0.12856051 0.5244081 1.3359636e-038
-0.05519861 0.12879618 0.52729261 1.3174882e-038
-0.045530744 0.12952282 0.52780944 1.3081607e-038
-0.034804091 0.12915008 0.52474993 1.3358193e-038
-0.027435865 0.12968481 0.5282222 1.3082326e-038
-0.017960526 0.1294079 0.52499998 1.299158e-038
-0.0035049797 0.12460975 0.52819997 1.1244607e-038
0.0036455945 0.12225818 0.52336961 1.7334583e-038
0.10882 0.12088035 0.52079999 1.7892463e-038
0.11587254 0.12356114 0.52353847 1.779955e-038
0.12153715 0.12175387 0.52870584 1.0136406e-038
-0.13333848 0.13526902 0.5266065 6.1698513e-039
-0.12732798 0.13425718 0.52134556 6.9981672e-039
-0.10445613 0.13 0.51999998 1.2989063e-038
-0.099438593 0.13 0.51999998 1.2437679e-038
-0.086979471 0.13016579 0.52139997 1.271426e-038
-0.077036045 0.13024884 0.52209997 1.3267795e-038
-0.064236015 0.13040569 0.52061111 1.3359995e-038
-0.055656768 0.13047959 0.52231044 1.3083047e-038
-0.044482015 0.13081186 0.5236578 1.2990492e-038
-0.036011852 0.13131811 0.52239531 1.3175239e-038
-0.024529854 0.13141268 0.52254546 1.2990488e-038
-0.015200621 0.13152243 0.52183336 1.2806098e-038
-0.0055481121 0.13227852 0.52495825 1.0041319e-038
0.0052681821 0.1326903 0.52236366 6.6283029e-039
0.015125556 0.13330947 0.52522236 5.9829391e-039
0.024556544 0.13386443 0.52577132 5.9825803e-039
0.033788912 0.13355729 0.52563143 5.5230455e-039
0.047007401 0.13531367 0.52245098 6.1669688e-039
0.054938644 0.13472725 0.52445787 5.6145209e-039
0.06470684 0.1348417 0.5253942 4.9698788e-039
0.075760402 0.1358805 0.525397 4.6929373e-039
0.083856665 0.13621461 0.52391791 4.2301725e-039
0.094307385 0.13734663 0.52227509 4.5099978e-039
0.12723237 0.13814391 0.52421868 1.2254739e-038
0.13389058 0.1383826 0.52686948 1.2346933e-038
-0.13450921 0.14286305 0.52583319 2.7629668e-039
-0.12844613 0.14326583 0.52059096 4.602541e-039
0.082378946 0.14021754 0.51999998 6.0747746e-039
0.093855508 0.14059745 0.52054542 4.878402e-039
0.12908772 0.14003509 0.51999998 1.2254379e-038
0.13640106 0.14427067 0.52324998 9.1204646e-039
0.1418131 0.14525805 0.52837932 8.0144813e-039
0.13771598 0.15375516 0.52249998 6.1709387e-039
0.14342535 0.15416384 0.52807128 6.1716604e-039
0.016946156 -0.10129096 0.53784615 1.5398814e-038
0.024591565 -0.10192282 0.53676921 1.5675754e-038
0.033884332 -0.10138936 0.5369333 1.5951985e-038
0.043417543 -0.10052105 0.53799999 1.6597359e-038
-0.0033720864 -0.09207616 0.53789276 1.4938556e-038
0.0052486239 -0.093685172 0.5353514 1.5399176e-038
0.014655183 -0.096128955 0.53383583 1.549173e-038
0.024641618 -0.097659133 0.53321064 1.5491727e-038
0.034720458 -0.097136006 0.5328216 1.5675754e-038
0.045075618 -0.094930619 0.53411114 1.5583923e-038
0.053185996 -0.092819683 0.53628206 1.5399892e-038
-0.012076623 -0.082551003 0.53774995 1.3462707e-038
-0.0051707835 -0.08500085 0.53506464 1.3185763e-038
0.0027269907 -0.087627403 0.53200001 1.4476492e-038
0.04766579 -0.089586847 0.53100002 1.4845643e-038
0.056128148 -0.085815273 0.53337002 1.4846359e-038
0.063233547 -0.083180815 0.5354681 1.4938918e-038
-0.014133761 -0.074558087 0.5366419 1.0972701e-038
-0.0073010689 -0.075999595 0.53270918 1.2725141e-038
0.058435839 -0.079091229 0.53171432 1.4570134e-038
0.065934844 -0.076078564 0.53293461 1.4477222e-038
0.072135255 -0.073547609 0.53665394 1.4016601e-038
-0.021465439 -0.060613859 0.53899997 1.1988292e-038
-0.014773559 -0.064882778 0.53561622 1.1618793e-038
-0.0090715485 -0.066177346 0.53208691 1.0973784e-038
0.06881351 -0.069185793 0.53219998 1.3555618e-038
0.074468821 -0.06451945 0.53530663 1.2448913e-038
0.081322804 -0.060519297 0.53899997 1.1526955e-038
-0.022215348 -0.054610319 0.5379231 1.1157454e-038
-0.015849832 -0.055314731 0.53391969 1.189466e-038
0.07570406 -0.055076409 0.5344947 1.0974139e-038
0.081110641 -0.056020509 0.53837502 1.0973778e-038
-0.023162769 -0.044761553 0.53729153 1.0696114e-038
-0.017216889 -0.04548138 0.53322005 1.0603202e-038
0.075390741 -0.044946615 0.53376079 1.0144026e-038
0.08106114 -0.043982841 0.53843755 9.59193e-039
-0.02378867 -0.034957785 0.53670287 1.0881226e-038
-0.017221006 -0.034700111 0.53260016 1.0419168e-038
0.069147632 -0.032658331 0.53190005 8.8522084e-039
0.074711889 -0.035443667 0.53518915 8.9451229e-039
0.080849998 -0.037351754 0.53899997 8.9451229e-039
-0.023118872 -0.025252935 0.53692186 8.4823427e-039
-0.016512461 -0.024378419 0.53304183 8.3905072e-039
0.058053859 -0.020812282 0.53200001 8.2997577e-039
0.065660737 -0.023463672 0.53289431 8.1150035e-039
0.072749905 -0.026092168 0.53669041 8.2997563e-039
-0.02201611 -0.015662638 0.5381363 8.1135545e-039
-0.015214378 -0.014828616 0.53417891 8.4823427e-039
-0.0097815786 -0.012576315 0.53100002 8.3901456e-039
0.048277847 -0.010961184 0.53175002 8.2994003e-039
0.055837773 -0.014261846 0.53344464 8.206846e-039
0.064521909 -0.015193558 0.53551602 7.9306164e-039
0.070558943 -0.018228773 0.53839999 8.4837902e-039
-0.020671131 -0.00760622 0.53890908 8.3901442e-039
-0.014880225 -0.0053675273 0.53606653 8.2975857e-039
-0.0069294078 -0.0037239483 0.53215867 8.0210016e-039
0.037490416 -0.0020981829 0.53185713 8.1139259e-039
0.045527246 -0.0042545972 0.5340116 8.2994003e-039
0.054183967 -0.0064049531 0.53588223 8.2075663e-039
0.062104095 -0.0085384799 0.5388 7.931701e-039
0.079756141 -0.00047192982 0.53799999 1.383185e-038
0.081247807 -0.00047236844 0.53849995 1.3647101e-038
-0.012844299 0.0014690547 0.53783327 7.7444119e-039
-0.0044366042 0.0043825093 0.53554171 7.8366103e-039
0.00469627 0.0061627338 0.53381056 7.9284486e-039
0.014980701 0.0070260409 0.53371441 7.9284556e-039
0.025140909 0.0064780503 0.53414625 7.8369789e-039
0.035027314 0.0047971485 0.53500938 7.837339e-039
0.044171464 0.0035439264 0.53719682 8.2986801e-039
0.050905555 0.00078801176 0.53899997 8.6667423e-039
0.078711711 0.0043831458 0.53778577 1.0419897e-038
0.080909736 0.0026081339 0.53654552 9.0376702e-039
0.0062450557 0.012022514 0.53772724 8.0206443e-039
0.015124114 0.012643114 0.53710639 8.0206485e-039
0.021395436 0.011686842 0.53719997 8.2975955e-039
0.034042105 0.010874561 0.53899997 8.3901554e-039
0.076346047 0.012252413 0.53724998 8.022089e-039
0.097856514 0.067265518 0.53756517 1.6415886e-038
0.1018872 0.067969456 0.53788239 1.899736e-038
0.097756907 0.072459795 0.53478259 1.9181753e-038
0.10096762 0.073054388 0.53490907 1.6691383e-038
0.099461406 0.081349127 0.53399998 1.1899744e-038
0.10127263 0.081224211 0.53399998 1.134693e-038
0.056022208 0.099024117 0.53732252 1.8075769e-038
0.064910933 0.098373756 0.53444451 1.9274314e-038
0.073429137 0.098106436 0.53545463 1.8169051e-038
0.08946842 0.098368421 0.53399998 1.2269607e-038
0.093709633 0.09785895 0.53581393 1.3559265e-038
0.046694294 0.10239618 0.53303343 1.7891379e-038
0.053897779 0.10120103 0.53358334 1.9089923e-038
0.064843096 0.10054404 0.53180003 1.9735292e-038
0.073467821 0.10101046 0.53218758 1.8260886e-038
0.096368365 0.10198106 0.53372222 1.6509534e-038
0.1046164 0.10506479 0.53528571 1.7800271e-038
0.11091123 0.10884842 0.53439999 1.6602457e-038
-0.012475048 0.11937737 0.53555554 2.0102271e-038
-0.0056942501 0.11915749 0.53551853 1.9550178e-038
0.0046334732 0.11711487 0.53583986 1.9366148e-038
0.014601048 0.11434841 0.53219438 1.9090281e-038
0.020028947 0.11225527 0.53100002 1.9365068e-038
0.10908986 0.1123037 0.53222227 1.7892827e-038
0.11463391 0.1141612 0.53393114 1.8352722e-038
0.12182491 0.11587989 0.53623068 1.1889991e-038
-0.14154071 0.12801579 0.53773338 6.9988889e-039
-0.13510036 0.12576705 0.53481245 1.0040243e-038
-0.12439099 0.12490967 0.53557408 1.2899021e-038
-0.11499675 0.12548341 0.53492725 1.2991225e-038
-0.10502166 0.12520279 0.53527653 1.2898658e-038
-0.095098138 0.12542532 0.5355472 1.2713184e-038
-0.084212229 0.12575494 0.53417945 1.3175246e-038
-0.074375302 0.12673292 0.53539222 1.3175964e-038
-0.065283202 0.12688899 0.53629631 1.3358559e-038
-0.05482116 0.12684496 0.5352245 1.3267078e-038
-0.044927549 0.12722677 0.53340679 1.2897576e-038
-0.035939697 0.12829827 0.53487098 1.2898658e-038
-0.024106547 0.12853043 0.53610814 1.2253657e-038
-0.015114789 0.12480947 0.53583783 1.3089605e-038
-0.0079365503 0.1245802 0.53214806 1.3182162e-038
0.0043761772 0.12909918 0.53600007 4.9713445e-039
0.057723682 0.12999561 0.53500003 3.8639068e-039
-0.14241242 0.13540608 0.53572345 5.3422696e-039
-0.13813914 0.1345211 0.53219348 6.1691408e-039
-0.071935527 0.13032237 0.53250003 1.3175604e-038
-0.044333331 0.1302 0.53200001 1.2713561e-038
-0.032835878 0.13059413 0.53630006 1.3082688e-038
-0.022697441 0.13069993 0.53341669 1.2991212e-038
-0.013710767 0.13119195 0.53381819 9.3030439e-039
-0.0011540671 0.13113748 0.53654552 4.5078314e-039
0.0040661581 0.13193534 0.53426319 4.6018193e-039
0.016505482 0.13298661 0.53760713 3.6802358e-039
0.025242416 0.13215245 0.53446299 3.3125364e-039
0.030586841 0.13243948 0.53100002 4.1440768e-039
0.04626026 0.13336113 0.5327 4.87733e-039
0.05748982 0.13180435 0.53283334 4.1404894e-039
0.066245735 0.13264948 0.5371033 3.4061642e-039
0.07442084 0.1329513 0.53639388 4.0465015e-039
0.083702005 0.13290833 0.5317778 5.430515e-039
0.12660144 0.13654318 0.53460598 1.160937e-038
0.13581888 0.13678543 0.53569227 1.2162542e-038
0.14401498 0.13740844 0.53590912 1.1978509e-038
0.15082544 0.13900527 0.53899997 1.0409753e-038
-0.14293449 0.14112531 0.53423077 3.4108768e-039
-0.13927105 0.14020264 0.53100002 3.777811e-039
0.146548 0.14461908 0.53406459 8.1985153e-039
0.15144657 0.1475247 0.53784621 6.9092198e-039
0.14786468 0.15280496 0.53307146 6.0808997e-039
0.15181734 0.15312853 0.53614998 5.6202942e-039
0.0086684208 -0.11028158 0.54900002 1.6229299e-038
0.018285966 -0.11088897 0.54657143 1.669028e-038
0.023402832 -0.11147869 0.54615384 1.6598443e-038
0.034005526 -0.11103676 0.54749995 1.6874309e-038
0.040785089 -0.11179913 0.54699999 1.6874314e-038
-0.010113158 -0.10065001 0.54900002 1.5491362e-038
-0.0038426749 -0.10135636 0.54735005 1.5399173e-038
0.0055558039 -0.10388491 0.54535294 1.5583927e-038
0.014529575 -0.10567535 0.54347301 1.5860514e-038
0.025235834 -0.10655759 0.54244655 1.6228572e-038
0.035402026 -0.10640357 0.54383117 1.6597717e-038
0.042472206 -0.10510314 0.54432517 1.659772e-038
0.052877195 -0.10094737 0.54799998 1.6598808e-038
-0.022728071 -0.091872714 0.54866666 1.4108442e-038
-0.014317878 -0.093825981 0.54552948 1.4938918e-038
-0.0056493068 -0.09594328 0.5422098 1.5215145e-038
0.0047198315 -0.098715641 0.54069561 1.5306986e-038
0.010894737 -0.099947363 0.54000002 1.5675408e-038
0.053999536 -0.097077198 0.54231584 1.5952703e-038
-0.030339474 -0.081386842 0.54900002 1.2173408e-038
-0.024419893 -0.084687658 0.54599994 1.3002091e-038
-0.015978476 -0.085435383 0.54141784 1.2909892e-038
-0.0099473689 -0.089526311 0.54000002 1.3370865e-038
0.067102969 -0.085396238 0.54054838 1.53077e-038
0.071358338 -0.081709906 0.54089999 1.5123309e-038
0.081570178 -0.080130696 0.54699999 1.4847801e-038
-0.030495396 -0.075115576 0.54891658 9.4982967e-039
-0.024890874 -0.075080127 0.54381734 1.0326971e-038
-0.018700961 -0.075999454 0.54004759 1.1434035e-038
0.07661514 -0.075583763 0.54224205 1.4109517e-038
0.082321353 -0.074227735 0.54520512 1.4016957e-038
-0.031899892 -0.064436071 0.54740471 1.0973424e-038
-0.024825381 -0.065182582 0.54223257 1.1250008e-038
-0.019421052 -0.068210527 0.54000002 1.1158524e-038
0.078189291 -0.067696303 0.5402143 1.2818057e-038
0.084757932 -0.064872585 0.54465848 1.2264884e-038
0.090952098 -0.062079478 0.54860002 1.1249656e-038
-0.032050606 -0.054924652 0.54684615 1.0419174e-038
-0.027136521 -0.055236287 0.54152018 1.0879792e-038
0.086057052 -0.054746695 0.54425329 1.0329138e-038
0.091018416 -0.051047366 0.54900002 9.4986512e-039
-0.033474807 -0.044682618 0.5458405 1.1987581e-038
-0.028047513 -0.045087531 0.54043245 1.1341849e-038
0.086037859 -0.045360871 0.54515487 9.6826893e-039
-0.035200041 -0.034732919 0.54503882 9.3124635e-039
-0.029190274 -0.035493862 0.54013044 1.0327689e-038
0.078813888 -0.031904239 0.54016668 8.483786e-039
0.084065564 -0.034461401 0.54488915 8.4841489e-039
-0.034304202 -0.025239928 0.54579747 8.2983129e-039
-0.028367197 -0.024723949 0.54083735 8.4823441e-039
0.077149637 -0.024342062 0.54187751 8.2990374e-039
0.084021978 -0.02666934 0.54772347 8.0238911e-039
-0.032453503 -0.015367514 0.54696661 8.2979472e-039
-0.02676524 -0.014590774 0.54144847 8.2057502e-039
0.069485962 -0.01297456 0.54133332 7.8387795e-039
0.074863851 -0.014640593 0.54436564 8.1150133e-039
-0.031094465 -0.0059514493 0.54752177 8.758931e-039
-0.025107794 -0.0048555895 0.54219586 8.2979472e-039
-0.018852631 -0.0010421053 0.54000002 7.8373194e-039
0.056602251 -0.0018274436 0.54028571 8.6674668e-039
0.065015957 -0.0045717736 0.54186517 8.2997619e-039
0.075208552 -0.0053020907 0.54432893 9.0369626e-039
0.083798975 -0.0040860628 0.543926 1.3002817e-038
-0.024289677 0.003255222 0.54654682 7.7433357e-039
-0.015708741 0.0054498701 0.54327154 7.9280829e-039
-0.0079839192 0.0082219299 0.5406667 8.1124797e-039
0.035526313 0.0096766902 0.54000002 8.1135686e-039
0.04609577 0.0074275476 0.54040498 8.4827126e-039
0.055307094 0.0049705394 0.54332328 8.3901582e-039
0.063658081 0.0037570908 0.54591668 8.0220904e-039
0.074944459 0.0051908237 0.54103321 9.2217126e-039
0.081473686 0.0033157894 0.54000002 1.0694686e-038
-0.012606161 0.012470825 0.54664296 8.2050355e-039
-0.0047009671 0.015194953 0.54408163 8.2046768e-039
0.0046973689 0.016488133 0.54136854 8.204318e-039
0.015077972 0.017440742 0.54211128 8.1128413e-039
0.02530363 0.015440592 0.54145283 8.3901526e-039
0.034991108 0.015442427 0.54267955 8.4827084e-039
0.044904057 0.014930335 0.54488009 8.7596582e-039
0.053469557 0.012447314 0.54691839 8.5756285e-039
0.061077408 0.010580043 0.54824996 8.2986787e-039
0.074360982 0.01533526 0.54521805 8.2068376e-039
-0.002467836 0.021488423 0.54759997 8.2043152e-039
0.005132399 0.022430187 0.54702181 8.2965095e-039
0.014750349 0.022486066 0.54709435 8.2050355e-039
0.024793539 0.022378165 0.5467608 8.3897897e-039
0.034996439 0.022377525 0.54737997 8.5749026e-039
0.042774603 0.021881534 0.54789466 8.8514923e-039
0.075744666 0.022003472 0.5478695 8.2993947e-039
0.080905259 0.023597367 0.54900002 8.8525727e-039
0.10662795 0.06622953 0.54461366 1.7059811e-038
0.11080592 0.065263517 0.54841661 1.6138928e-038
0.10883528 0.071294934 0.54711109 1.0053294e-038
0.11135337 0.071515344 0.54716665 1.0697581e-038
0.056076206 0.096836992 0.54034781 1.6416249e-038
0.065761566 0.095120795 0.54365087 1.761479e-038
0.073685937 0.095070221 0.54504663 1.7799905e-038
0.098607227 0.096231475 0.54741174 1.3559267e-038
0.10213158 0.098008998 0.54683322 1.5218787e-038
0.0071973689 0.10987982 0.54699999 1.8629669e-038
0.012521053 0.10931842 0.54900002 1.7983581e-038
0.099142104 0.1001 0.546 1.5679409e-038
0.1052909 0.10154299 0.54407698 1.6509888e-038
0.11539441 0.10773614 0.54541183 1.8168691e-038
0.12161031 0.10810755 0.54474998 1.8350554e-038
-0.14206579 0.11991315 0.54900002 1.2437321e-038
-0.13195263 0.11991315 0.54900002 1.2991215e-038
-0.12390399 0.11936171 0.54727268 1.3175614e-038
-0.1158492 0.11968968 0.54725003 1.3360005e-038
-0.10746421 0.11978211 0.54840004 1.2991211e-038
-0.022943193 0.11804706 0.54803991 1.5677593e-038
-0.015153498 0.11777008 0.5447287 2.010299e-038
-0.0042975429 0.11613191 0.54416084 2.0379218e-038
0.0049314476 0.11397231 0.54425013 1.9458705e-038
0.013952326 0.11259695 0.54653025 1.8075415e-038
0.11763767 0.11182253 0.54083872 1.8998091e-038
0.12240559 0.11443654 0.54000002 1.2352426e-038
-0.15056895 0.12830508 0.54699999 5.8961497e-039
-0.14489433 0.12454858 0.54480261 8.3814562e-039
-0.13497904 0.12180265 0.54448086 1.2622078e-038
-0.12508002 0.12179017 0.54328579 1.299158e-038
-0.11467284 0.12205242 0.54281253 1.3175615e-038
-0.10506521 0.12229069 0.54467201 1.3174165e-038
-0.095229991 0.12281923 0.54424 1.2897575e-038
-0.084791034 0.1235867 0.54247278 1.3358917e-038
-0.075456254 0.12363165 0.54183346 1.3451113e-038
-0.064645767 0.12410271 0.54404277 1.3174881e-038
-0.055507876 0.12465317 0.54566032 1.3174883e-038
-0.034180749 0.12687825 0.54703635 1.2438034e-038
-0.024431823 0.12506495 0.54214495 1.299557e-038
0.057030227 0.12916707 0.54300004 6.5433394e-039
0.064847887 0.12912168 0.54105884 5.5248686e-039
0.071526311 0.12931579 0.54000002 8.8475042e-039
-0.15229808 0.1347717 0.54579985 2.2098098e-039
-0.14760761 0.13448761 0.54256827 4.5132236e-039
-0.016320575 0.13189954 0.54000002 9.4881471e-039
0.049354389 0.1314535 0.54100001 2.9444756e-039
0.055016 0.13168138 0.54113793 3.5873241e-039
0.064264067 0.13153698 0.54056662 3.4036531e-039
0.072789475 0.13026315 0.54000002 4.697982e-039
0.12806964 0.13385694 0.54566658 1.096364e-038
0.13482565 0.13364121 0.5434252 1.188524e-038
0.1448745 0.13387173 0.54336548 1.1977792e-038
0.15340297 0.1367389 0.54610252 1.1056916e-038
-0.1473158 0.1406842 0.54000002 1.2914423e-039
0.15509646 0.14543903 0.54335111 7.0932537e-039
0.16109814 0.14786282 0.54862499 6.3574921e-039
0.15724403 0.15150732 0.54454541 5.9883537e-039
0.16115963 0.1505965 0.5473333 5.8046841e-039
-0.0015788499 -0.11220145 0.5585556 1.5398807e-038
0.0033176637 -0.11200075 0.55622721 1.6229298e-038
0.013630864 -0.1136611 0.55407894 1.6690277e-038
0.029483333 -0.11261667 0.551 1.6599159e-038
0.031554766 -0.11330714 0.55100006 1.6691356e-038
-0.020086404 -0.10092237 0.55850005 1.3371254e-038
-0.013968358 -0.10323831 0.55616283 1.5030755e-038
-0.0049634445 -0.10608388 0.55384493 1.5583571e-038
0.0029009746 -0.10821569 0.55155557 1.6044547e-038
0.045916669 -0.10633333 0.551 1.6597366e-038
-0.025195021 -0.094609007 0.55162787 1.4016247e-038
-0.016968526 -0.098170713 0.55259997 1.4846006e-038
-0.032965176 -0.08384946 0.55379999 1.392441e-038
-0.028598856 -0.088208333 0.55070001 1.3279043e-038
-0.040699124 -0.072571926 0.55900002 9.8656429e-039
-0.035460155 -0.074916899 0.55411756 1.0235862e-038
-0.040699124 -0.066687718 0.55900002 9.5894161e-039
-0.036995474 -0.065452352 0.55396628 9.6826879e-039
0.089254387 -0.067061402 0.55000001 1.2541831e-038
0.09098167 -0.06649106 0.55036366 1.2265243e-038
-0.04128563 -0.052951124 0.55661112 1.0604648e-038
-0.037269954 -0.055134311 0.55256861 1.0696483e-038
-0.042498197 -0.044097997 0.55431384 1.1434406e-038
-0.038067024 -0.046379622 0.55137032 1.1803546e-038
0.089254387 -0.040043861 0.55000001 9.0373227e-039
0.091597751 -0.048038848 0.55000001 9.6826851e-039
-0.044526394 -0.035127074 0.55507505 1.0419535e-038
-0.039078947 -0.039078947 0.55000001 1.0510302e-038
0.088612281 -0.036265243 0.55124998 8.3001178e-039
0.092166997 -0.034835964 0.55625707 8.5763474e-039
-0.043871302 -0.025385167 0.55604869 8.7589282e-039
-0.038592041 -0.023064779 0.55046159 8.574181e-039
0.085553341 -0.022978036 0.55214816 7.747307e-039
0.092022806 -0.029857896 0.55799997 8.4827154e-039
-0.042132933 -0.015343578 0.55699986 8.2053928e-039
-0.03744325 -0.014421877 0.55257994 8.5741782e-039
0.079544961 -0.011121272 0.55124998 8.2993989e-039
0.08436016 -0.015469274 0.55487186 8.0231764e-039
-0.041201822 -0.0067851506 0.55821437 8.4827084e-039
-0.036000695 -0.0045051379 0.55320764 8.6667367e-039
0.074480504 -0.0029261296 0.55318177 8.1135629e-039
0.081058778 -0.0078140358 0.55666667 8.6681717e-039
-0.033875946 0.0035501989 0.55441928 7.7436972e-039
-0.026351558 0.007618323 0.55222207 7.9277241e-039
-0.019780703 0.0091666672 0.55000001 8.2954333e-039
0.067531995 0.0067692418 0.55254835 7.7451406e-039
0.071329162 0.0041700001 0.55315995 8.0213645e-039
-0.030892106 0.010297368 0.55900002 8.389431e-039
-0.023911828 0.013417002 0.55629027 8.3890694e-039
-0.015931753 0.016012283 0.5530284 8.5738222e-039
-0.0086842105 0.019780703 0.55000001 8.3897869e-039
0.049014036 0.019557457 0.55050004 9.0369696e-039
0.056174833 0.016656326 0.5529474 8.6685416e-039
0.065552011 0.014668889 0.55537373 8.4830671e-039
0.07073503 0.015703825 0.55163628 8.4834259e-039
-0.020104386 0.021085089 0.55900002 9.3113859e-039
-0.014184207 0.024279248 0.55691338 9.2191944e-039
-0.0052720229 0.02586952 0.5533058 8.6660151e-039
0.004558187 0.027380638 0.55255562 8.4812637e-039
0.01514843 0.027534364 0.5526492 8.3897869e-039
0.025318192 0.027405558 0.55233341 8.5741796e-039
0.034863416 0.027388498 0.55200011 8.6667367e-039
0.04546079 0.025972482 0.55312365 8.8522098e-039
0.054907691 0.025293119 0.55638754 9.1287981e-039
0.06539803 0.022259301 0.55791998 8.4830643e-039
0.074852839 0.025616847 0.55226308 7.8380495e-039
-0.010297368 0.031382456 0.55900002 9.4035843e-039
-0.0040905308 0.032174271 0.5582059 8.8504077e-039
0.0046771928 0.032169897 0.55694735 8.8500462e-039
0.014966391 0.031794406 0.55706239 8.7578478e-039
0.025257722 0.032025557 0.55736101 8.5748998e-039
0.035150066 0.032711707 0.55651999 8.7585694e-039
0.044514731 0.032623775 0.55764443 8.7589324e-039
0.053968612 0.031946257 0.55837029 8.3905114e-039
0.076694004 0.03224827 0.55786198 7.561101e-039
0.080907896 0.032363154 0.55900002 8.3905058e-039
0.11404788 0.057423685 0.55461562 1.6324044e-038
0.11529037 0.064434893 0.55234742 1.2912804e-038
0.09934932 0.087345622 0.5548889 1.1623516e-038
0.10205424 0.0865677 0.55466664 1.1807547e-038
0.076112866 0.092622533 0.55168563 1.696942e-038
0.080184214 0.091847368 0.55400002 1.6692116e-038
0.098175079 0.092125706 0.55331826 1.2268522e-038
0.10476492 0.09527567 0.55345106 1.4204274e-038
0.11260778 0.09894257 0.55629408 1.604783e-038
-0.0024475707 0.10876013 0.55715388 1.5124423e-038
0.0025831929 0.10790873 0.55363995 1.5862713e-038
0.018228641 0.10846943 0.55254996 1.7246011e-038
0.025039952 0.1072199 0.55372345 1.706162e-038
0.034379989 0.10614529 0.55503929 1.6877588e-038
0.045564365 0.10314333 0.5582059 1.6692476e-038
0.050325438 0.10309386 0.55699998 1.6415899e-038
0.1089443 0.10104664 0.55116671 1.5865242e-038
0.11481534 0.10341217 0.55251741 1.7339289e-038
0.12128411 0.1059057 0.55129999 1.6603176e-038
-0.15160131 0.11871206 0.5575 9.3026922e-039
-0.14528112 0.11803496 0.5545103 1.2345489e-038
-0.13484342 0.11832243 0.55397922 1.2991219e-038
-0.12548833 0.11892334 0.55400008 1.3175611e-038
-0.11610711 0.11942314 0.55587995 1.3268166e-038
-0.10428879 0.11914016 0.55664289 1.3267436e-038
-0.095867544 0.11915953 0.55587494 1.3174878e-038
-0.085860528 0.11981667 0.55299997 1.3451473e-038
-0.02321922 0.11636531 0.55045456 1.1158569e-038
-0.014730573 0.11396555 0.55459034 1.7612266e-038
-0.0053546722 0.11193377 0.55302042 1.7705905e-038
0.0016913743 0.11115175 0.55133337 1.9181038e-038
0.022900438 0.11052308 0.55309999 1.706126e-038
-0.15303481 0.12436758 0.55390203 6.815955e-039
-0.14661936 0.12079801 0.55063641 9.9476931e-039
-0.13701755 0.12013157 0.55000001 1.2714634e-038
-0.12978069 0.12013157 0.55000001 1.3267083e-038
-0.11163113 0.12044575 0.55816668 1.3083047e-038
-0.10517687 0.1205501 0.55521053 1.3266719e-038
-0.094802789 0.12091477 0.55245715 1.2990488e-038
-0.085473351 0.1212455 0.55200011 1.3451116e-038
-0.074557222 0.12251177 0.55408901 1.3267439e-038
-0.0653698 0.12279687 0.55376655 1.3081968e-038
-0.053003449 0.12465619 0.55431247 1.2991211e-038
-0.044824492 0.12581967 0.55495399 1.2806101e-038
-0.038200989 0.12558278 0.5503751 1.2252923e-038
0.12911171 0.12862338 0.55333334 1.0226072e-038
0.13425463 0.12860799 0.55500001 1.151645e-038
0.15187193 0.12982675 0.55850005 1.2346935e-038
-0.15527706 0.13229311 0.55242854 2.8555324e-039
0.1274903 0.13128994 0.55066675 1.1151324e-038
0.13457564 0.13092376 0.55138469 1.1792675e-038
0.14564209 0.13172528 0.55425644 1.2069988e-038
0.15519835 0.13314453 0.55330014 1.1978511e-038
0.1627886 0.13610311 0.55602705 9.9505742e-039
0.15806416 0.14260824 0.55060005 7.7389749e-039
0.16439205 0.14434482 0.55454677 6.9113862e-039
0.16355263 0.15004386 0.55000001 6.1727506e-039
0.0039929827 -0.1202886 0.56900001 9.2170294e-039
-0.020464035 -0.11030614 0.56900001 9.3095684e-039
-0.01401071 -0.1124578 0.56594735 1.1799575e-038
-0.0061659738 -0.11351839 0.56315792 1.3461257e-038
0.005387106 -0.11668651 0.5660333 1.6134934e-038
0.011072367 -0.11392237 0.56099999 1.6413696e-038
-0.021601437 -0.10415447 0.56318182 1.355491e-038
-0.015991721 -0.10775436 0.56332362 1.5029316e-038
-0.0090114037 -0.10928158 0.56033331 1.5398824e-038
-0.032646272 -0.093715571 0.56825 1.3740022e-038
-0.026018294 -0.098213032 0.56514281 1.4108803e-038
-0.050411403 -0.081357017 0.56900001 1.078506e-038
-0.045444261 -0.081529528 0.56673336 1.1616633e-038
-0.037130997 -0.085508361 0.56493336 1.355527e-038
-0.043194301 -0.074693948 0.56392306 1.060465e-038
-0.039789476 -0.079087719 0.56 1.2909534e-038
-0.043881338 -0.064754598 0.56431502 1.0143306e-038
-0.045676649 -0.055202678 0.56486589 1.0604646e-038
-0.047065031 -0.046561655 0.56557149 1.0512451e-038
-0.050596494 -0.031929825 0.56 9.9607013e-039
-0.049286555 -0.032748539 0.56 1.0605718e-038
-0.051505458 -0.02521842 0.56386948 8.7603617e-039
-0.048808713 -0.023853578 0.56115383 8.6674514e-039
0.089204036 -0.021931402 0.56059998 8.1153734e-039
0.091992386 -0.02531953 0.56173074 7.9320612e-039
-0.051195614 -0.015980702 0.56428581 9.1273575e-039
-0.047266018 -0.014621641 0.56220007 8.5752642e-039
0.087387934 -0.011077411 0.56124997 8.4834413e-039
-0.05005702 -0.0094166668 0.565 9.6801698e-039
-0.04518177 -0.004610186 0.56370151 8.4827084e-039
0.084798433 -0.0089003909 0.56022221 9.3131963e-039
-0.04311762 0.0028312532 0.56682861 8.1128413e-039
-0.037046432 0.0073115169 0.56545156 8.3894296e-039
-0.033102196 0.01437016 0.56612289 9.0348046e-039
-0.026652452 0.017168809 0.56197053 8.7582149e-039
0.064552635 0.019005556 0.56033331 8.1139259e-039
-0.03131485 0.022277255 0.56792849 9.4035717e-039
-0.024886245 0.024850328 0.56405151 9.3113845e-039
-0.016793258 0.028331026 0.56042111 9.4957827e-039
0.065253243 0.02532907 0.56341797 7.9295262e-039
0.071195938 0.028023047 0.56045449 7.8373166e-039
-0.023789391 0.032787926 0.56552845 9.034429e-039
-0.015024252 0.034884721 0.56227177 9.3113845e-039
-0.0054194066 0.036567133 0.56166083 9.4043032e-039
0.0050812084 0.036856007 0.56188464 9.2199077e-039
0.0147066 0.036509428 0.56172884 9.3113873e-039
0.024696792 0.036604792 0.56227583 9.1277135e-039
0.034904182 0.037458047 0.56234884 8.9429607e-039
0.045596395 0.037105173 0.5616222 8.8511266e-039
0.05486577 0.036654536 0.56459624 8.5745397e-039
0.062984429 0.030629167 0.56774998 8.0206414e-039
0.077017017 0.035234675 0.56353337 7.837325e-039
0.080070175 0.034877192 0.56 7.6522317e-039
-0.020455044 0.041908555 0.56875002 9.6801656e-039
-0.014490881 0.044337597 0.56602198 9.2195448e-039
-0.0049546752 0.044617102 0.56506974 9.8652785e-039
0.0047581368 0.044449851 0.56629783 9.7734444e-039
0.014938157 0.044032101 0.56759554 9.7734458e-039
0.024715386 0.04296812 0.56731766 9.4972191e-039
0.034536716 0.042318281 0.56698012 9.3131865e-039
0.044460364 0.041420802 0.56639385 8.8511252e-039
0.05299069 0.041547671 0.56826097 8.6667283e-039
-0.01256953 0.052571632 0.56860006 9.2195448e-039
-0.0049850866 0.052843604 0.56830019 1.0234064e-038
0.0020517057 0.051949371 0.56883341 1.0326615e-038
0.11697903 0.05283564 0.56449997 1.6969782e-038
0.12383429 0.056761961 0.56578445 1.7154173e-038
0.12562686 0.063291624 0.56720507 1.2911724e-038
0.13106966 0.064786136 0.56900001 1.263438e-038
0.044998344 0.098178737 0.56484836 1.7982852e-038
0.055062491 0.09810584 0.56595242 1.7061259e-038
0.06140399 0.097697929 0.56745452 1.6324055e-038
0.10757518 0.094017394 0.5635882 1.3282681e-038
0.11382525 0.096228287 0.56764114 1.4758173e-038
0.12409145 0.098612398 0.56900012 1.7707715e-038
-0.011810526 0.10973947 0.56099999 5.9937697e-039
-0.0058649802 0.10866606 0.56053841 1.3553129e-038
0.039508775 0.10328012 0.56066662 1.7061259e-038
0.044942107 0.10285202 0.5611766 1.7153451e-038
0.052982561 0.10126073 0.56312501 1.6508801e-038
0.11882135 0.10136403 0.56677777 1.614183e-038
0.12559895 0.10379826 0.56595278 1.7615514e-038
0.13318674 0.10524573 0.56609511 1.6047467e-038
-0.15508984 0.11720071 0.56356817 9.2119427e-039
-0.14360447 0.1165102 0.56490004 1.2991587e-038
-0.13460346 0.11600176 0.56551796 1.3083418e-038
-0.12491851 0.11675403 0.56544131 1.3359286e-038
-0.11467289 0.11616052 0.56540972 1.3451117e-038
-0.10549581 0.11698522 0.56542414 1.3358916e-038
-0.094654389 0.11774277 0.56465459 1.2990848e-038
-0.085576415 0.11769411 0.56589484 1.3359276e-038
-0.075645387 0.11858252 0.5654642 1.3359278e-038
-0.065421052 0.11915977 0.565 1.308197e-038
-0.057783064 0.11924675 0.56299996 1.2897936e-038
-0.04442193 0.11929035 0.56900001 1.1146218e-038
-0.013042914 0.11111607 0.56030762 9.7734584e-039
-0.0081923977 0.11091959 0.56033331 1.6322966e-038
0.12885964 0.11101755 0.565 6.730969e-039
0.13212404 0.11067702 0.56580007 8.1113783e-039
-0.15735723 0.12193908 0.56077772 6.9088709e-039
-0.083937675 0.12125338 0.56440902 1.3634783e-038
-0.075019777 0.12073157 0.56210721 1.3451107e-038
-0.06508562 0.12129229 0.56210005 1.2898298e-038
-0.054760426 0.12237984 0.56248146 1.280646e-038
-0.046604104 0.12199067 0.56606239 1.2344397e-038
0.13556817 0.12690714 0.56704885 9.4877995e-039
0.14449555 0.12769027 0.56446677 1.2070346e-038
0.1554707 0.12923913 0.56356519 1.253097e-038
0.16273777 0.12922262 0.56535715 1.2163266e-038
0.14496401 0.13054943 0.56019998 1.2162542e-038
0.15761524 0.13068959 0.56062496 1.2439127e-038
0.16559626 0.13254561 0.5650304 1.1609727e-038
0.17020088 0.13376492 0.56900001 1.0595585e-038
0.16918579 0.14339948 0.56099999 7.0025e-039
0.17007895 0.14247192 0.56199998 7.1843774e-039
0.0071292981 -0.12056299 0.57219994 1.1801013e-038
-0.020500001 -0.1115 0.56999999 1.0139679e-038
-0.0185 -0.1135 0.56999999 1.0231532e-038
0.0082058487 -0.11938889 0.57266665 1.5949834e-038
-0.030756842 -0.10336632 0.57479995 1.0970537e-038
-0.028884796 -0.10273068 0.57266665 1.3001359e-038
-0.034275595 -0.094521284 0.57190901 1.3924051e-038
-0.029551754 -0.09967456 0.57099998 1.4478657e-038
-0.038867686 -0.088911556 0.57050002 1.3279036e-038
-0.052434605 -0.073577628 0.57700008 1.0876537e-038
-0.047836941 -0.075645648 0.5725714 1.1156379e-038
-0.052449957 -0.064374968 0.57652938 1.0511005e-038
-0.048741326 -0.065433882 0.57241386 1.0603564e-038
-0.05449152 -0.054498125 0.57597297 1.0509921e-038
-0.049352102 -0.058362283 0.57059997 1.1065974e-038
-0.054319743 -0.044920247 0.57538342 1.0510284e-038
-0.049521707 -0.044019077 0.57024997 1.0603925e-038
-0.054883815 -0.036030561 0.57456243 9.4039374e-039
-0.0495 -0.039500002 0.56999999 1.0974147e-038
-0.055699129 -0.022093421 0.579 8.8507679e-039
-0.052649409 -0.0035636676 0.57548392 1.0231888e-038
-0.049706247 -0.00401239 0.572375 9.4050248e-039
-0.052100025 0.0040856292 0.57761765 9.6787152e-039
-0.046036322 0.0064181024 0.57387263 8.4816252e-039
-0.04300686 0.014309589 0.57644445 8.8500448e-039
-0.037853591 0.016144605 0.57230002 9.0347962e-039
-0.042095512 0.022525029 0.57817644 9.6798013e-039
-0.035123467 0.024812074 0.5737384 8.7574848e-039
-0.030833334 0.030833334 0.56999999 9.125903e-039
-0.025058009 0.0376724 0.57573336 9.4954114e-039
0.059639182 0.036925144 0.57133335 8.5738194e-039
0.065246008 0.035230838 0.5735386 8.4827042e-039
0.073591143 0.036464714 0.57534432 7.8369677e-039
-0.022973552 0.04457948 0.57549995 9.8641981e-039
-0.018763948 0.048362192 0.57190001 9.8645582e-039
0.0083358185 0.049181145 0.57016665 9.9578343e-039
0.015004768 0.04914128 0.57018751 9.8652813e-039
0.025310855 0.048172828 0.57059449 9.6816159e-039
0.035396487 0.04761621 0.57183993 9.6816075e-039
0.045104787 0.046449251 0.57321066 9.2213482e-039
0.05529571 0.046070576 0.57575852 9.0362353e-039
0.063924007 0.043506138 0.57756597 9.1280764e-039
0.072919816 0.041963778 0.57800001 8.3908617e-039
0.11781181 0.048189629 0.57758826 1.3469582e-038
0.12501386 0.048331257 0.57795835 2.0288103e-038
0.13154472 0.049265791 0.579 1.9827493e-038
-0.021619154 0.052864771 0.57761121 1.0141502e-038
-0.016015753 0.056116551 0.57239687 9.8641953e-039
-0.0050046262 0.058038615 0.57037485 1.0142224e-038
0.0056659076 0.05581475 0.57169503 1.0511014e-038
0.01509032 0.054831918 0.57338905 1.0142588e-038
0.025212998 0.054965921 0.57478899 1.0050034e-038
0.034888942 0.054836918 0.57637501 1.0050396e-038
0.044852763 0.052699581 0.57763988 9.5894147e-039
0.050861955 0.05136941 0.57837504 9.3139068e-039
0.11725366 0.050709207 0.57616669 1.1993739e-038
0.12631257 0.052530348 0.57380003 1.9458344e-038
0.1338765 0.055899642 0.57591659 1.8168325e-038
0.14068684 0.059423681 0.579 1.6786479e-038
-0.020823685 0.066026315 0.579 1.0510281e-038
-0.015073705 0.064840309 0.57487649 9.8645512e-039
-0.0050225453 0.065281048 0.57244003 1.0326255e-038
0.0049075317 0.065122679 0.57358533 1.1064546e-038
0.014522821 0.064262144 0.57748169 1.0881235e-038
0.024906982 0.061283112 0.57852012 1.0235144e-038
0.03325804 0.060929969 0.57883334 1.0326622e-038
0.12965146 0.061571345 0.57066667 1.4756722e-038
0.13545991 0.062565103 0.57435894 1.5125862e-038
0.14276519 0.065486729 0.57850003 1.401734e-038
-0.011915753 0.07288783 0.57752168 1.0325894e-038
-0.0050074714 0.075263567 0.57615739 1.0510285e-038
0.0051804897 0.074943781 0.57580239 1.1341132e-038
0.012660348 0.075196721 0.57818359 1.1710997e-038
0.12240263 0.079739474 0.579 1.1805382e-038
-0.003200229 0.08432579 0.57777572 1.0695036e-038
0.0050560446 0.084954463 0.57647002 1.1250018e-038
0.013061821 0.085178494 0.57770157 1.161844e-038
0.067616664 0.089366086 0.57666665 1.7154177e-038
0.074912399 0.088536732 0.57799995 1.8167968e-038
0.084524244 0.088219702 0.57799995 1.7246006e-038
0.11726191 0.087865405 0.57586962 1.4296829e-038
0.12419455 0.085440703 0.57745427 1.3835851e-038
0.13116053 0.088454738 0.57819998 1.346492e-038
-0.0018888153 0.095707387 0.57830542 1.1157459e-038
0.0050668526 0.09522558 0.57742953 1.1157825e-038
0.01425383 0.095074214 0.57790858 1.1065988e-038
0.058300108 0.093650691 0.57170838 1.7430764e-038
0.065133303 0.093823217 0.5725286 1.678503e-038
0.074468397 0.092672765 0.5765686 1.7153451e-038
0.082945704 0.091964744 0.57582146 1.5955983e-038
0.11631224 0.093201965 0.57168627 1.5218788e-038
0.12502375 0.094000563 0.57256258 1.5680132e-038
0.13402863 0.096323788 0.57601571 1.4940763e-038
0.14121316 0.099709645 0.57700002 1.2173824e-038
-0.011740242 0.10730933 0.57875001 8.573095e-039
-0.004953221 0.10519429 0.57724482 1.1250738e-038
0.0040781917 0.10402429 0.57544446 1.2264174e-038
0.012331077 0.10162657 0.57885712 1.226525e-038
0.13768598 0.10353652 0.57194859 1.5863439e-038
0.14141676 0.10415762 0.57113636 1.6042042e-038
-0.16249143 0.11501177 0.57666659 7.6471562e-039
-0.15462449 0.11339578 0.57435375 1.2254022e-038
-0.14572059 0.11360332 0.57398385 1.2991948e-038
-0.13545144 0.11310861 0.57355887 1.3267448e-038
-0.12473292 0.11304781 0.57465905 1.3542949e-038
-0.11746158 0.11321525 0.57620001 1.3359275e-038
-0.10447931 0.11450453 0.57521874 1.3726622e-038
-0.09599638 0.11506729 0.57315153 1.3267075e-038
-0.082487777 0.11575113 0.57358819 1.3542947e-038
-0.075021155 0.11696519 0.57564151 1.3175245e-038
-0.065412067 0.11879101 0.57679313 1.2990133e-038
-0.051982746 0.11910351 0.5753333 1.1605394e-038
-0.044888891 0.11928929 0.57488889 1.0593048e-038
-0.039707892 0.11912369 0.57300001 9.8562009e-039
-0.011522807 0.11080176 0.57828575 0
-0.0075999997 0.11068728 0.57750005 5.2580516e-039
0.13850002 0.1105 0.56999999 1.0324819e-038
-0.070871055 0.12012894 0.57300001 1.3450035e-038
-0.068325438 0.12015631 0.57700002 1.3082685e-038
-0.051689353 0.12118534 0.57528573 1.2067804e-038
-0.043327056 0.12213451 0.5731613 1.1423166e-038
-0.0363793 0.12409148 0.57451928 1.0685957e-038
0.13760534 0.12535764 0.57209998 8.9349915e-039
0.14493716 0.12514707 0.57725626 1.0964003e-038
0.15456939 0.12651725 0.57354051 1.2439129e-038
0.1655089 0.12769946 0.57380944 1.2162546e-038
0.17247836 0.12803598 0.57675004 1.1885595e-038
0.15627369 0.13072895 0.57099998 1.2530967e-038
0.16936433 0.13098598 0.57066667 1.1793758e-038
0.17345876 0.13375296 0.57345456 9.2133819e-039
-0.055116963 -0.072415203 0.57999998 1.0783619e-038
-0.056233507 -0.064945616 0.58122575 1.0600665e-038
-0.058668043 -0.057361029 0.5815714 1.0690341e-038
-0.063068122 -0.045166854 0.58317995 1.0505586e-038
-0.059192237 -0.045302752 0.58028567 1.0139325e-038
-0.061567191 -0.034716506 0.58111113 9.9542161e-039
-0.05791647 -0.031929627 0.58088881 9.4957645e-039
-0.06237774 -0.02497438 0.58314705 9.1259058e-039
-0.057735849 -0.025877537 0.58139473 9.0351507e-039
-0.061473683 -0.019978946 0.58399999 8.3901414e-039
-0.056473661 -0.015648346 0.58143151 7.4660117e-039
-0.056670174 -0.0066473684 0.58200002 1.2159655e-038
-0.052278802 0.0078095025 0.58049995 1.0508095e-038
-0.051228952 0.012811229 0.58399999 1.1702654e-038
-0.047292382 0.015839923 0.58151215 1.0045323e-038
-0.042567253 0.023912281 0.57999998 9.8649072e-039
-0.037169591 0.028621638 0.58599997 9.4943324e-039
-0.033378743 0.035307512 0.58675992 9.4035745e-039
-0.029074999 0.036724705 0.58149999 9.4961275e-039
-0.031237964 0.043561645 0.58805555 9.8642009e-039
-0.027415657 0.045517541 0.583 1.0048592e-038
0.059017546 0.049350876 0.57999998 9.4053808e-039
0.066348732 0.047626454 0.58155882 9.3131865e-039
0.071714573 0.047097124 0.58350003 8.4837804e-039
0.11909812 0.04494198 0.58128577 1.8260526e-038
0.12510155 0.044626042 0.58119237 1.9089201e-038
0.13486752 0.04671289 0.58285701 1.8537833e-038
0.1418255 0.04804004 0.58517647 1.577197e-038
-0.030535087 0.050719298 0.58999997 1.0048951e-038
-0.025829796 0.055434674 0.58420593 1.0325536e-038
0.038921054 0.058763161 0.57999998 1.005147e-038
0.045069192 0.057798579 0.58052272 9.8667261e-039
0.055231582 0.055122331 0.58284169 9.6819705e-039
0.064813428 0.054903872 0.58671802 9.4972177e-039
0.071519487 0.052020077 0.58844447 8.5756173e-039
0.13748111 0.052651949 0.58146155 1.8998093e-038
0.14467131 0.055528976 0.58397317 1.8076499e-038
0.15164313 0.058751881 0.58828574 1.7524047e-038
-0.024570284 0.064846963 0.58432883 1.0509926e-038
-0.019842105 0.068684213 0.57999998 9.7734402e-039
0.018593088 0.067993917 0.58023524 1.1065271e-038
0.025187008 0.066448748 0.58110327 1.0419897e-038
0.034901913 0.065608867 0.58115411 1.0235146e-038
0.044861864 0.064930782 0.58384889 1.0143309e-038
0.054177787 0.064441681 0.58737314 9.8663575e-039
0.063865051 0.060998656 0.58969223 9.5890574e-039
0.099368423 0.069868423 0.58999997 1.2439146e-038
0.14728381 0.064332597 0.58061367 1.7430397e-038
0.15307148 0.065408334 0.58255929 1.7614797e-038
-0.024140781 0.074970439 0.58538216 1.051064e-038
-0.01634904 0.07556504 0.58123547 1.0141138e-038
-0.0096666673 0.07987719 0.57999998 1.0418091e-038
0.017705102 0.075153776 0.58061987 1.1526968e-038
0.025107339 0.075312585 0.58403689 1.0696488e-038
0.034960676 0.075055376 0.58562094 1.0050757e-038
0.044603575 0.074577592 0.58780277 9.8663603e-039
0.05051842 0.071208477 0.5896666 9.9589133e-039
0.078438118 0.078042038 0.5856154 9.8587555e-039
0.085295737 0.077288635 0.58770365 1.3736054e-038
0.094716005 0.075492591 0.58832943 1.613677e-038
0.10277828 0.071923479 0.58923066 1.6043493e-038
0.11997369 0.079131573 0.58200002 1.1342949e-038
0.12459963 0.076603748 0.58282804 1.1707745e-038
0.13222434 0.078924999 0.58425003 1.2991948e-038
0.14739475 0.072064705 0.5811764 7.929508e-039
0.15272233 0.073043235 0.58257145 8.2086467e-039
-0.02458868 0.085067675 0.58666271 1.0418442e-038
-0.015052611 0.084861323 0.58321744 1.0602481e-038
-0.0077842358 0.086151287 0.58074987 1.0694685e-038
0.018118808 0.085001178 0.58041453 1.1711359e-038
0.025127683 0.085101143 0.58443332 1.0973434e-038
0.035114441 0.085074089 0.58881146 9.9585616e-039
0.042729937 0.081977196 0.58973336 9.4050262e-039
0.076733649 0.084577814 0.58205128 1.7521518e-038
0.085021093 0.08370202 0.58394384 1.8167243e-038
0.092246994 0.083486632 0.58462501 1.7154176e-038
0.11908802 0.080354683 0.58099997 1.1619896e-038
0.12830916 0.082179829 0.58190912 1.3648213e-038
0.13233367 0.0842347 0.58203328 1.2718998e-038
-0.03087149 0.09865015 0.58983332 1.0696104e-038
-0.024568764 0.095019527 0.58724743 1.0787592e-038
-0.014783803 0.095202751 0.58415896 1.1248936e-038
-0.0068964511 0.094643131 0.58085948 1.124858e-038
0.019308304 0.09301123 0.58026665 1.1434769e-038
0.024819562 0.093698181 0.58273846 1.1342218e-038
0.033873409 0.092814416 0.58784014 1.0696484e-038
0.1360099 0.092980608 0.58049995 1.207471e-038
-0.16268662 0.10819855 0.58765 1.1424627e-038
-0.15525399 0.10856058 0.58471805 1.2899392e-038
-0.14562947 0.1087112 0.58825809 1.2991582e-038
-0.13472477 0.10942905 0.58844447 1.3542951e-038
-0.12464889 0.1090758 0.58719236 1.3726978e-038
-0.11748245 0.10920175 0.58999997 1.3542584e-038
-0.032090858 0.10267884 0.58852625 7.7397189e-039
-0.024853295 0.10381908 0.58429462 8.2043096e-039
-0.015827106 0.10391757 0.58180547 1.0511004e-038
-0.0076315789 0.10073683 0.57999998 1.2077619e-038
-0.16451427 0.11216305 0.58411545 8.6613011e-039
-0.15439685 0.11051396 0.58058327 1.2715358e-038
-0.14436898 0.1109707 0.58453572 1.3083784e-038
-0.13512458 0.11150315 0.58268422 1.335928e-038
-0.12503052 0.11101056 0.583 1.3635144e-038
-0.11478017 0.11177349 0.58408618 1.3635146e-038
-0.10500278 0.11210278 0.5838086 1.3819178e-038
-0.094359323 0.11337328 0.58353847 1.3174525e-038
-0.086203918 0.11404195 0.58612496 1.3542588e-038
-0.075019784 0.11527018 0.5850001 1.2899013e-038
-0.064444318 0.11696812 0.58374357 1.2161086e-038
-0.055623759 0.11812525 0.58424997 1.1054018e-038
-0.04845614 0.11890045 0.583 1.0316455e-038
-0.035696052 0.1191138 0.58974999 7.2751016e-039
-0.013736842 0.11040351 0.57999998 0
0.1392193 0.11955263 0.58999997 6.3520831e-039
0.14220527 0.11945131 0.58949995 8.1981425e-039
-0.060752634 0.12099474 0.58200002 1.262207e-038
-0.05677757 0.1214851 0.5808571 1.2252567e-038
-0.044781577 0.12122769 0.58528572 1.0225344e-038
-0.034617644 0.12185547 0.58584774 8.7509436e-039
-0.028620301 0.12314536 0.58114284 7.4609236e-039
0.13765682 0.12358186 0.58527017 7.0903642e-039
0.14486632 0.1222608 0.5860185 9.2126546e-039
0.15511833 0.12318078 0.58802277 1.0778538e-038
0.16510078 0.12445456 0.58539724 1.1700848e-038
0.17392573 0.12475647 0.58557147 1.1885959e-038
0.17936052 0.1311693 0.58033329 7.6489554e-039
-0.13173495 0.0092327073 0.59899998 9.9465903e-039
-0.12888259 0.0092327073 0.59899998 9.8667205e-039
-0.13212469 0.015070518 0.59748483 9.2104742e-039
-0.1266766 0.015236763 0.59689081 1.3923712e-038
-0.13333118 0.026264844 0.59441656 1.2348033e-038
-0.1278636 0.025223877 0.59506005 1.4016273e-038
-0.03790877 0.028561404 0.59200001 9.4964834e-039
-0.14148146 0.036627971 0.59515792 1.317491e-038
-0.13490146 0.035049617 0.59511662 1.3366545e-038
-0.12803926 0.034231912 0.59619999 1.4662009e-038
-0.037681352 0.035779748 0.59265214 9.957114e-039
-0.14161262 0.043866601 0.5951035 9.6725635e-039
-0.13474715 0.044798788 0.59498006 1.1432611e-038
-0.12869333 0.046414994 0.59590006 1.4937512e-038
-0.035163425 0.045488577 0.59497988 1.0141144e-038
-0.14067082 0.056179453 0.59457147 3.1364549e-039
-0.13501593 0.054936379 0.59471792 7.2848953e-039
-0.1280832 0.055129614 0.59443885 1.5308458e-038
-0.033164557 0.054854717 0.59397995 1.0418091e-038
-0.029549999 0.059618421 0.59100002 1.0326258e-038
0.068431571 0.059099998 0.59100002 9.3120991e-039
0.15376668 0.057118837 0.59168422 1.7339674e-038
-0.14125292 0.060786258 0.59566665 3.9640548e-039
-0.13363281 0.063964501 0.59474987 9.3131977e-039
-0.1281455 0.065034941 0.59474283 1.5399207e-038
-0.032982137 0.064972617 0.59554166 1.0602123e-038
-0.029254047 0.065490887 0.59146154 1.0693959e-038
0.057747953 0.067727 0.5918889 9.6823292e-039
0.064164415 0.06564533 0.5927816 9.4046591e-039
0.097947806 0.069392256 0.59183335 1.3175255e-038
0.10344053 0.067719482 0.59321433 1.3083781e-038
-0.14056537 0.078613594 0.59350002 1.1790881e-038
-0.13459659 0.075421378 0.59377772 1.17974e-038
-0.12928905 0.076022245 0.59707147 1.4105938e-038
-0.032839794 0.075048849 0.59491843 1.078687e-038
-0.029085178 0.074964672 0.59152621 1.0695029e-038
0.049092628 0.078153685 0.59160006 9.589772e-039
0.054845285 0.075274758 0.59392214 9.4046591e-039
0.062651761 0.074092917 0.59591842 8.3901428e-039
0.088948078 0.073378593 0.59160006 1.1238412e-038
0.093326069 0.071349837 0.59136367 1.2253305e-038
0.10457895 0.070287466 0.59228569 1.4747687e-038
-0.14039913 0.080899127 0.59500003 1.1791956e-038
-0.13408522 0.083192132 0.59691662 1.1335332e-038
-0.12798138 0.082445122 0.5982222 1.3182151e-038
-0.033334255 0.085368991 0.59498209 1.0879065e-038
-0.029385528 0.084006876 0.59116673 1.0879418e-038
0.039918423 0.087094739 0.59100002 9.4979393e-039
0.045603167 0.085713163 0.59218901 9.1280778e-039
0.054480348 0.083987132 0.59620297 8.2979528e-039
0.060425438 0.080392107 0.59899998 8.2954333e-039
-0.041226856 0.098045751 0.59723079 1.0508468e-038
-0.034968007 0.094987683 0.59396201 1.0879786e-038
-0.029549997 0.092797376 0.59100002 1.0696477e-038
0.039606292 0.092703648 0.59150004 9.5908594e-039
0.044802688 0.092336968 0.59319353 1.1065631e-038
0.050975144 0.090641819 0.59500003 1.1337916e-038
-0.17080002 0.10869065 0.59666669 2.7661492e-040
-0.16557655 0.1068354 0.5964666 1.0503768e-038
-0.1552252 0.10726062 0.59554833 1.3175258e-038
-0.1448949 0.10696428 0.59299999 1.3083419e-038
-0.13477188 0.1076322 0.59448642 1.3359278e-038
-0.12592117 0.10781927 0.59689277 1.3358549e-038
-0.11461439 0.10903509 0.59390002 1.3726975e-038
-0.10500991 0.10853565 0.59448653 1.363515e-038
-0.096462868 0.10930993 0.59766668 1.2897945e-038
-0.042576183 0.10184635 0.59694993 1.4711616e-039
-0.036534436 0.10185626 0.59308696 6.0812892e-039
-0.17052764 0.11055569 0.59450001 4.3321254e-039
-0.16946433 0.11164913 0.59200001 6.2674867e-039
-0.11975526 0.11042368 0.59100002 1.3634781e-038
-0.10401775 0.11081935 0.59269232 1.3819182e-038
-0.095067501 0.11103557 0.59448284 1.308233e-038
-0.082988203 0.11246119 0.59385002 1.3082688e-038
