# .PCD v0.7 - Point Cloud Data file format
VERSION 0.7
FIELDS x y z rgb
SIZE 4 4 4 4
TYPE F F F F
COUNT 1 1 1 1
WIDTH 960
HEIGHT 1
VIEWPOINT 0 0 0 1 0 0 0
POINTS 960
DATA ascii
-0.059595615 0.13973655 0.49833336 1.3361081e-038
-0.042842027 0.13946849 0.49699995 1.3636594e-038
-0.037348498 0.13973045 0.49757147 1.3637315e-038
-0.026361307 0.13967398 0.49811113 1.3545476e-038
-0.014610031 0.13403697 0.49573463 1.4473615e-038
-0.0093337717 0.13199298 0.495 2.0472137e-038
0.043334208 0.13963246 0.49900001 7.3691105e-039
-0.091045618 0.14926228 0.49900001 5.8921798e-039
-0.08400245 0.14521745 0.49710172 7.8275565e-039
-0.074740626 0.14449079 0.49363109 9.4877897e-039
-0.065254629 0.14254948 0.49352172 1.2439125e-038
-0.055247203 0.14179969 0.49365827 1.3268531e-038
-0.044839568 0.14208373 0.49302658 1.3453284e-038
-0.03485623 0.14178774 0.49381578 1.372951e-038
-0.024866514 0.14250879 0.4951463 1.3269251e-038
-0.016084889 0.14231098 0.49382094 1.078034e-038
0.025614498 0.1438273 0.4938001 5.1560679e-039
0.036322705 0.14473966 0.4933863 7.6460505e-039
0.044857256 0.14423774 0.49428582 8.29142e-039
0.055325519 0.14532265 0.49372339 1.0503749e-038
0.065084785 0.1454666 0.4942365 1.1794481e-038
0.074506298 0.14642121 0.4944374 1.2163997e-038
0.084426582 0.14689715 0.49694046 1.1795218e-038
0.09271691 0.14806852 0.49899995 9.0293591e-039
-0.09125638 0.1550661 0.49899986 4.5125118e-039
-0.08483991 0.15486519 0.49581197 4.9720396e-039
-0.075308017 0.15445453 0.49168542 5.8003471e-039
0.076963902 0.15507631 0.49161336 7.7382518e-039
0.084756568 0.15481342 0.49462071 7.7389734e-039
0.093456715 0.15505107 0.49876434 7.6464219e-039
-0.083018355 0.16091537 0.49507692 2.1219596e-039
-0.077413164 0.16082563 0.49299997 3.0413768e-039
0.076562159 0.16346002 0.49042162 6.1720261e-039
0.083612002 0.16226757 0.49263832 6.4493276e-039
0.093311302 0.16187154 0.49888876 6.8177416e-039
-0.021147544 0.12964825 0.50860006 1.9272142e-038
-0.014305153 0.12885725 0.50862503 2.0379217e-038
0.017935693 0.12630183 0.50823075 1.9642378e-038
0.020092105 0.12546404 0.509 1.9642738e-038
-0.10148237 0.13884553 0.50830001 8.7513093e-039
-0.094716303 0.13823156 0.50671428 1.2069259e-038
-0.084561527 0.13827701 0.50501698 1.3268536e-038
-0.074911937 0.13790169 0.50448489 1.3268891e-038
-0.065008849 0.13824452 0.50401676 1.3360729e-038
-0.05522969 0.13826783 0.50492758 1.3360726e-038
-0.045145571 0.13816567 0.50637889 1.3360725e-038
-0.035165533 0.13883401 0.50525922 1.3729152e-038
-0.023950029 0.13622901 0.50453472 1.2072171e-038
-0.017426958 0.13299842 0.50438237 1.6226424e-038
0.037287585 0.13873145 0.50545007 5.6195754e-039
0.040606726 0.13924415 0.505 6.815578e-039
0.057150878 0.13975176 0.509 7.7396909e-039
0.075010523 0.13975176 0.509 9.9509385e-039
0.089744739 0.13975176 0.509 1.2625331e-038
0.091410242 0.13912281 0.50833338 1.2717523e-038
-0.10283311 0.14546268 0.50712699 6.2606022e-039
-0.095054179 0.14465892 0.5030697 6.9978015e-039
-0.087869875 0.14289294 0.50088465 8.9338957e-039
-0.072757721 0.14047773 0.50139999 1.3269255e-038
-0.06892851 0.14049079 0.50049996 1.3269255e-038
-0.052473396 0.14061813 0.50199991 1.3360006e-038
-0.047246266 0.14072679 0.50242102 1.3452565e-038
-0.03419181 0.14040898 0.50177777 1.3729509e-038
-0.026603289 0.14047961 0.50124997 1.3453645e-038
0.036955111 0.14171366 0.50311422 6.6319042e-039
0.046136685 0.14207487 0.50442493 7.6456946e-039
0.054759208 0.14188971 0.50418419 8.1995873e-039
0.064174332 0.14158645 0.50266016 9.1204618e-039
0.075297669 0.1423879 0.50484943 1.0964373e-038
0.08563523 0.14299846 0.50420004 1.2717525e-038
0.094997883 0.14450616 0.50427788 1.2348389e-038
0.10378649 0.14641799 0.50622231 9.9513056e-039
-0.10335855 0.15373735 0.50682455 3.9589835e-039
-0.096180625 0.1539329 0.50257778 4.6958142e-039
0.098204918 0.15461399 0.50150007 7.7389749e-039
0.10473762 0.15522741 0.50572085 7.4627481e-039
0.11072981 0.15716492 0.50899994 7.1865227e-039
0.098316304 0.16182576 0.50139993 6.5422365e-039
0.10495852 0.16101466 0.50505555 6.3582068e-039
0.11072982 0.16073683 0.509 6.2671056e-039
0.098102562 0.078276366 0.51806253 1.7522594e-038
0.10209188 0.078898899 0.5184167 1.5771246e-038
0.08734905 0.083220817 0.51790911 1.8076138e-038
0.098137192 0.081614383 0.51746672 1.5034758e-038
0.10176083 0.081474267 0.5177334 1.3651462e-038
0.069351755 0.097729824 0.51899999 1.9827486e-038
0.072106585 0.096331902 0.51862502 1.9919685e-038
0.03271579 0.11632281 0.51800001 1.9182481e-038
-0.024578249 0.12757269 0.51464778 1.6505172e-038
-0.017046221 0.12782861 0.51453847 2.0563967e-038
-0.0045359442 0.12812558 0.51551217 2.056433e-038
0.0043136394 0.127966 0.5140239 2.0379941e-038
0.01633993 0.12458565 0.51385409 1.9827488e-038
0.022611376 0.12194743 0.51645166 1.9827128e-038
-0.11302469 0.13718805 0.51662219 8.5644027e-039
-0.10528044 0.13632949 0.51402324 1.1423536e-038
-0.095062725 0.13522613 0.51264602 1.3360372e-038
-0.085499436 0.13554111 0.51383775 1.3360731e-038
-0.074801117 0.13544616 0.51431745 1.3268892e-038
-0.065089464 0.13552307 0.51401371 1.354476e-038
-0.055422187 0.13534009 0.5136615 1.3545114e-038
-0.044668004 0.13585553 0.51552826 1.3452561e-038
-0.034552936 0.13619165 0.51470524 1.3452921e-038
-0.027412048 0.13348363 0.51222914 1.1333879e-038
-0.0022585965 0.13090719 0.51459998 2.0287744e-038
0.0018657895 0.13037959 0.5132857 2.019555e-038
0.046562012 0.13843137 0.5126363 6.353881e-039
0.056131419 0.13883063 0.51417953 7.1854381e-039
0.064835377 0.13863677 0.51596779 7.7382504e-039
0.074555948 0.13906346 0.51488632 9.2130147e-039
0.085345589 0.13943397 0.51455557 1.1425706e-038
0.097278066 0.1390596 0.51382357 1.2993389e-038
0.10467887 0.13919437 0.51675004 1.3270336e-038
0.11154737 0.13928275 0.51833338 1.2993752e-038
-0.12064474 0.14932632 0.51899999 3.8685745e-039
-0.11471049 0.14499494 0.51564986 5.9847355e-039
-0.10750692 0.14437981 0.51077348 6.1684037e-039
0.045624606 0.14101343 0.51105553 7.4613006e-039
0.054554973 0.14008734 0.5102222 7.6471366e-039
0.065880135 0.141037 0.51119995 8.2917857e-039
0.074739359 0.14054905 0.51059997 9.8583897e-039
0.084755287 0.14105168 0.51174194 1.1795211e-038
0.097082973 0.14124708 0.51200002 1.3362174e-038
0.10624563 0.14217116 0.51222855 1.2532773e-038
0.11464733 0.14471366 0.51452565 1.0135694e-038
0.12138323 0.14741427 0.51826316 7.9237262e-039
-0.12100895 0.15178473 0.51899999 1.6588095e-039
-0.11490099 0.15276441 0.51485002 2.4863953e-039
-0.10878859 0.15310851 0.51036364 3.0384803e-039
0.10960526 0.15121052 0.50999999 7.8322467e-039
0.11539382 0.15471558 0.51238626 7.186164e-039
0.12241224 0.15449665 0.51681125 6.9099415e-039
0.11486404 0.16018026 0.5115 6.0830661e-039
-0.01208772 -0.080429822 0.52999997 1.5029667e-038
-0.0048234649 -0.08072038 0.52999985 1.4937833e-038
0.0009298246 -0.080429822 0.52999997 1.5214427e-038
-0.024484886 -0.073035143 0.52929991 1.3000977e-038
-0.015222888 -0.074932486 0.52891314 1.3923313e-038
-0.0050932462 -0.074989013 0.52766371 1.4015518e-038
0.0048989193 -0.074554168 0.52880776 1.4199905e-038
0.011708173 -0.072178997 0.52942097 1.4016236e-038
-0.032848656 -0.064132109 0.52939993 1.1802799e-038
-0.024935553 -0.065032646 0.52833962 1.1157428e-038
-0.015249122 -0.065154299 0.52676904 1.1525505e-038
-0.0050710212 -0.064997375 0.52549654 1.2171245e-038
0.0050175674 -0.065076649 0.52676505 1.2447828e-038
0.014123151 -0.064710632 0.52915645 1.1987214e-038
-0.032724276 -0.055201821 0.52919686 1.0972706e-038
-0.024967812 -0.055014368 0.52700949 1.1065615e-038
-0.015228227 -0.054914571 0.52605844 1.1526238e-038
-0.0050697564 -0.054840617 0.52537256 1.1249292e-038
0.0050831069 -0.054944724 0.52638066 1.0972701e-038
0.015011737 -0.05559225 0.5292452 1.0973058e-038
0.020921053 -0.056719299 0.52999997 1.1248926e-038
-0.033188365 -0.04508698 0.52923137 9.2202664e-039
-0.024974622 -0.044851638 0.52714574 9.5897692e-039
-0.015217523 -0.044726513 0.52566993 1.0142942e-038
-0.0050705816 -0.044725575 0.5256536 1.0419531e-038
0.0050937794 -0.044874039 0.52740514 1.02355e-038
0.013050606 -0.045347046 0.52926123 1.0696477e-038
-0.031770241 -0.037087902 0.5296551 8.8514937e-039
-0.024723999 -0.035268135 0.52891809 8.2993975e-039
-0.015297295 -0.034762833 0.52845424 8.1142846e-039
-0.0050966851 -0.034743719 0.52817339 8.2068362e-039
0.0049857651 -0.034873445 0.52868623 8.6678101e-039
0.01145129 -0.037194636 0.52964699 1.0050389e-038
-0.021277193 -0.028523859 0.52960002 8.5741908e-039
-0.014803474 -0.027318418 0.52985197 8.7589408e-039
-0.0052908901 -0.027283985 0.52971929 9.1284422e-039
0.0029429405 -0.028299585 0.52971423 8.7592939e-039
0.10568567 0.058884647 0.52649999 1.4850012e-038
0.088823043 0.068289094 0.52857137 1.4011541e-038
0.095106892 0.067749232 0.52581477 1.7614434e-038
0.10548319 0.065234296 0.52623105 1.5679051e-038
0.11133231 0.063922301 0.5291428 1.3088862e-038
0.077844858 0.078953147 0.52553338 1.4474347e-038
0.085899845 0.076008804 0.52399069 1.8074685e-038
0.094511054 0.074490994 0.52197409 1.9458707e-038
0.1042612 0.073914364 0.52265877 1.7154898e-038
0.069203243 0.088080294 0.5278461 1.438649e-038
0.074453257 0.084696136 0.52640784 1.5400641e-038
0.084424719 0.082084686 0.52084625 1.7891382e-038
0.10263158 0.08347369 0.51999998 1.079484e-038
0.058079112 0.098667622 0.52854544 1.9089924e-038
0.065441094 0.095405854 0.52471787 1.8536387e-038
0.071611516 0.092602521 0.52220827 1.8444918e-038
0.038319923 0.10847143 0.52814281 1.9458707e-038
0.045053195 0.10640991 0.52633333 1.9089564e-038
0.054397363 0.10294692 0.5257082 1.9182117e-038
0.06221693 0.10142245 0.52269995 1.9274311e-038
0.0079035088 0.11948244 0.52999997 2.0656527e-038
0.01563088 0.11873436 0.52858967 2.0564331e-038
0.025601787 0.11740853 0.52508324 2.001152e-038
0.034864895 0.11322967 0.52419752 1.9458705e-038
0.041223772 0.11097254 0.52450001 1.899737e-038
-0.12018509 0.12946579 0.52899998 1.2715717e-038
-0.11493355 0.12949438 0.52974993 1.2715361e-038
-0.10627894 0.12971053 0.52999997 1.2900104e-038
-0.09572047 0.12983741 0.52799994 1.3176339e-038
-0.073490351 0.12982473 0.52820003 1.3361088e-038
-0.067540236 0.12953037 0.52737498 1.3637316e-038
-0.031619973 0.12510051 0.52522731 1.2070345e-038
-0.025525486 0.12428799 0.52523172 1.6413343e-038
-0.015069956 0.12587488 0.52467865 2.0932392e-038
-0.0049002818 0.12517278 0.5257889 2.0840915e-038
0.0051030209 0.12397188 0.52529633 2.0564332e-038
0.014109427 0.12243992 0.52319717 2.0379941e-038
0.022295864 0.12052243 0.52185714 2.0011517e-038
-0.13098185 0.13813393 0.52950001 6.7230349e-039
-0.12469065 0.13502601 0.52638531 8.2892564e-039
-0.11565863 0.13309057 0.52399993 1.1516452e-038
-0.1052276 0.13216631 0.52472961 1.3176339e-038
-0.094841272 0.1324268 0.52403849 1.3360731e-038
-0.085129321 0.13238184 0.52467167 1.3452925e-038
-0.07492777 0.13251223 0.52477145 1.3452923e-038
-0.065120906 0.13255635 0.52557772 1.3636955e-038
-0.054654609 0.13283344 0.52529567 1.3637315e-038
-0.045023277 0.13303377 0.52505261 1.3729506e-038
-0.035369571 0.13265379 0.52512854 1.3176332e-038
-0.010947369 0.13 0.51999998 2.0379582e-038
0.055732802 0.13676792 0.52298307 5.7085158e-039
0.064873151 0.13612382 0.52261764 6.9996035e-039
0.076115489 0.1368631 0.52426863 8.7524023e-039
0.084434383 0.13688841 0.52425909 9.9505868e-039
0.095280044 0.1374184 0.52578956 1.142571e-038
0.10479746 0.13722356 0.52643764 1.2256191e-038
0.11489163 0.13733393 0.52481014 1.2717168e-038
0.12444261 0.13801609 0.52577776 1.2900836e-038
0.13206524 0.13890176 0.52927262 1.2163998e-038
-0.13146973 0.14492808 0.52912498 4.2362822e-039
-0.12464892 0.1445159 0.52328897 5.5255651e-039
-0.11924838 0.14206718 0.52028567 6.3535167e-039
0.05291228 0.14003509 0.51999998 6.9081268e-039
0.082719594 0.14030439 0.52099997 1.0687064e-038
0.093559384 0.14056841 0.52028567 1.2440219e-038
0.10177631 0.14046052 0.52499998 1.2624609e-038
0.1176079 0.14053032 0.52033329 1.2716803e-038
0.12552419 0.14422219 0.52255046 9.2137448e-039
0.13263711 0.14513493 0.52696478 7.8311719e-039
-0.12316798 0.1508147 0.52099997 1.5651691e-039
0.12738463 0.15275915 0.52223337 7.0024944e-039
0.13377005 0.1534626 0.52716988 6.5425995e-039
-0.022279624 -0.090896092 0.53861541 1.5767951e-038
-0.015675733 -0.091200463 0.5384286 1.5952345e-038
-0.0056847446 -0.091701992 0.53826082 1.6228938e-038
0.0026323309 -0.090639599 0.53857142 1.613782e-038
-0.0405038 -0.081165202 0.53899997 1.4662332e-038
-0.034162659 -0.082985021 0.5373928 1.4292825e-038
-0.02481968 -0.084819429 0.53521633 1.4661248e-038
-0.014983532 -0.085209839 0.5339781 1.521478e-038
-0.0051982459 -0.085880116 0.53370208 1.5583566e-038
0.0050533768 -0.084774353 0.53484946 1.5583564e-038
0.014646529 -0.083219357 0.53604406 1.549173e-038
0.022176914 -0.082095884 0.53786361 1.5214783e-038
-0.050590351 -0.071393855 0.53899997 1.3094286e-038
-0.044297148 -0.07436379 0.53732872 1.3647455e-038
-0.035002485 -0.074853882 0.53395325 1.373929e-038
-0.025953166 -0.077595547 0.53172332 1.4016233e-038
-0.016308771 -0.079493687 0.53120005 1.4661241e-038
0.0071588452 -0.079345681 0.53208333 1.512187e-038
0.01570059 -0.075277567 0.53275329 1.438502e-038
0.024573274 -0.074688941 0.53574502 1.3831844e-038
0.031280264 -0.071413152 0.53825003 1.3002082e-038
-0.053212028 -0.064111382 0.53725791 1.2264526e-038
-0.044863243 -0.064931706 0.53395313 1.2724781e-038
-0.037441276 -0.065914832 0.53179622 1.244891e-038
0.018506967 -0.066598609 0.531353 1.2170531e-038
0.024754675 -0.064971611 0.53384501 1.2079051e-038
0.032631058 -0.064540282 0.53784001 1.1987574e-038
-0.06004649 -0.051063158 0.53899997 8.8514769e-039
-0.054520328 -0.054967579 0.53641665 1.0604278e-038
-0.044968233 -0.054819938 0.53286958 1.0788312e-038
-0.03792455 -0.055131745 0.53145647 1.0603924e-038
0.017633459 -0.051835716 0.53100008 1.0696115e-038
0.025230384 -0.05469631 0.53335446 1.0880504e-038
0.032842174 -0.055157125 0.53772134 1.097342e-038
-0.06004649 -0.046335086 0.53899997 8.9447726e-039
-0.054630134 -0.044819102 0.53682369 8.5749082e-039
-0.044847481 -0.045086779 0.53365088 8.2986759e-039
-0.038415462 -0.045110144 0.53156406 8.6678157e-039
0.01754863 -0.044784117 0.53171116 1.0696476e-038
0.024814356 -0.045022357 0.53413928 1.0143305e-038
0.031758126 -0.046155613 0.53766662 9.9578371e-039
-0.052873991 -0.035970401 0.53789079 8.0224561e-039
-0.045049131 -0.035188727 0.53490913 8.3908799e-039
-0.035983939 -0.034295015 0.53211969 8.4830741e-039
-0.027892178 -0.031076683 0.53141671 8.5741894e-039
0.0097938599 -0.031246491 0.5316667 7.7429784e-039
0.015590971 -0.034625035 0.53291428 9.2202664e-039
0.02441866 -0.035532132 0.53587836 9.5894105e-039
0.030675439 -0.036810525 0.53800005 9.5908496e-039
-0.050905555 -0.029471638 0.53899997 8.1135686e-039
-0.044248767 -0.02580265 0.53721148 7.9295402e-039
-0.035015039 -0.024962226 0.5346154 8.205767e-039
-0.025095744 -0.02448055 0.53291994 8.3905198e-039
-0.015336038 -0.022518786 0.53191656 8.4830699e-039
-0.0049744109 -0.022363888 0.53223437 8.760017e-039
0.0056035793 -0.023999698 0.53300017 8.9440495e-039
0.014775049 -0.025287319 0.53554004 8.3908743e-039
0.022888007 -0.02765334 0.5377838 7.745142e-039
-0.040188596 -0.019385088 0.53899997 7.9288242e-039
-0.033907227 -0.017309207 0.53780425 7.9295388e-039
-0.024688207 -0.015352299 0.53632337 8.1139301e-039
-0.015034778 -0.015026373 0.53557992 8.390517e-039
-0.005166275 -0.015022019 0.53540903 8.5749082e-039
0.0049254904 -0.015395947 0.53624737 8.8511336e-039
0.012413632 -0.01723765 0.53784609 8.6678171e-039
-0.021827923 -0.0091409367 0.53899997 8.5741936e-039
-0.015435759 -0.0094283279 0.53899997 8.574904e-039
-0.0050219577 -0.0088010682 0.53871864 8.852214e-039
0.0056732455 -0.0056692981 0.53874999 9.6816103e-039
0.015507032 -0.0052553304 0.53732795 1.0419535e-038
0.024008455 -0.0042815437 0.53784001 8.3901414e-039
0.0094561409 0.00047280703 0.53899997 8.6663752e-039
0.048891813 0.099356718 0.53766668 2.037994e-038
0.055235956 0.096578576 0.53522849 1.7614065e-038
0.061690815 0.093040399 0.53215784 1.4847461e-038
0.027680196 0.10862055 0.53678942 1.9919326e-038
0.03515486 0.10711421 0.5348388 1.9643099e-038
0.044851989 0.10280012 0.53451854 1.9827126e-038
0.051738307 0.10067748 0.53300005 2.010371e-038
-0.031384211 0.11944737 0.53399998 1.0409743e-038
-0.024216592 0.11889009 0.53657138 1.7429304e-038
-0.015454585 0.11942413 0.53677267 2.1577753e-038
-0.0051023629 0.11897494 0.53680563 2.1394082e-038
0.0053808549 0.11859532 0.53587502 2.0841274e-038
0.015914226 0.11614937 0.53610009 2.0472137e-038
0.02457438 0.11316168 0.53506851 2.0195911e-038
0.032355554 0.11102128 0.53253335 1.9827488e-038
-0.1319457 0.12885638 0.5377273 1.1238771e-038
-0.12524045 0.12910341 0.53492683 1.2714634e-038
-0.11493494 0.12912916 0.53596663 1.2899392e-038
-0.10496647 0.12868501 0.53446805 1.2899751e-038
-0.094395086 0.12884153 0.53551114 1.3267816e-038
-0.085650206 0.12886697 0.53586841 1.3176337e-038
-0.075107194 0.129366 0.53562856 1.3268529e-038
-0.064052232 0.12944038 0.53562504 1.372879e-038
-0.054719128 0.12915602 0.53655261 1.3821346e-038
-0.044749465 0.12895375 0.53735477 1.3913904e-038
-0.032752864 0.12229919 0.53280002 1.124023e-038
-0.024473952 0.12136374 0.53261554 1.7613335e-038
-0.014665288 0.12218549 0.53321576 2.1393364e-038
-0.0056593418 0.12153461 0.5333001 2.1025304e-038
0.0026951416 0.12068152 0.53276926 2.0748003e-038
-0.13447142 0.13461943 0.53511256 7.2758387e-039
-0.12849586 0.1308936 0.53157145 1.0132788e-038
-0.1185943 0.1303601 0.53649998 1.2714642e-038
-0.10079999 0.13066578 0.53200001 1.2900829e-038
-0.096011154 0.13043822 0.53242862 1.3084505e-038
-0.08431948 0.13081719 0.53231579 1.3360725e-038
-0.076705441 0.13053212 0.53260005 1.3452921e-038
-0.063557312 0.1304443 0.53333336 1.3729153e-038
-0.054914217 0.13064384 0.53221053 1.3913546e-038
-0.045137748 0.13080643 0.53377777 1.3913903e-038
-0.038126316 0.13087241 0.53545451 1.3729509e-038
0.058293235 0.1338817 0.53285712 3.8639096e-039
0.076755174 0.13394208 0.53416663 7.8311607e-039
0.085677616 0.13370313 0.53400004 9.6740013e-039
0.094006702 0.13425919 0.5338394 1.041121e-038
0.10571858 0.13414751 0.53414285 1.1426432e-038
0.11523553 0.13447516 0.53407317 1.2164717e-038
0.12499345 0.13519497 0.53468424 1.2255831e-038
0.13478276 0.13680182 0.53526562 1.2163632e-038
0.14124212 0.13854411 0.53800005 9.7654766e-039
-0.14078124 0.14436826 0.53820002 1.2885738e-039
-0.1367614 0.14418034 0.53510863 3.5923631e-039
0.13771518 0.14506543 0.5326578 7.5549451e-039
0.14161004 0.14536387 0.53600007 7.3705581e-039
0.13909967 0.15146832 0.53212506 6.4504038e-039
0.14120765 0.1513638 0.53328568 6.3582054e-039
-0.024073178 -0.10107215 0.54826313 1.6044185e-038
-0.015096834 -0.10090651 0.54743481 1.6137102e-038
-0.0046383771 -0.10103509 0.54716665 1.6137099e-038
0.0019260966 -0.10060418 0.54875004 1.5861233e-038
-0.050565787 -0.090055257 0.54900002 1.4570137e-038
-0.043597557 -0.092134476 0.54785717 1.512295e-038
-0.034587912 -0.094312005 0.54580259 1.5399539e-038
-0.025379822 -0.095354497 0.5438751 1.5676121e-038
-0.014949574 -0.096174367 0.54351479 1.6044908e-038
-0.0047336207 -0.096057348 0.54229522 1.6321494e-038
0.0050120433 -0.095032521 0.54367894 1.6229298e-038
0.014875034 -0.093919747 0.54507995 1.6229295e-038
0.023869978 -0.092740647 0.54713631 1.586051e-038
0.030821051 -0.090536833 0.54900002 1.5676116e-038
-0.060518425 -0.080744736 0.54900002 1.3740006e-038
-0.05375693 -0.083659127 0.5467931 1.4201354e-038
-0.045061454 -0.085023418 0.54325807 1.4569415e-038
-0.03584601 -0.087604426 0.5408501 1.4846362e-038
-0.028894737 -0.089526318 0.54000002 1.5583563e-038
0.0083684213 -0.08936841 0.54000002 1.6321132e-038
0.015748998 -0.088221245 0.54049999 1.6229297e-038
0.025828958 -0.08541853 0.54186684 1.549137e-038
0.034369044 -0.084183432 0.54561329 1.5030749e-038
0.041845985 -0.081977069 0.54742849 1.3924037e-038
-0.063210495 -0.074073181 0.54690558 1.2817701e-038
-0.055327751 -0.075138792 0.54305339 1.3279035e-038
-0.047932494 -0.077465616 0.54012495 1.3831844e-038
0.029486844 -0.077565789 0.54000002 1.4200263e-038
0.035567626 -0.07537321 0.54221529 1.3278672e-038
0.043322135 -0.074095093 0.54674578 1.3002087e-038
-0.070823394 -0.062492985 0.54799998 1.1250735e-038
-0.064544074 -0.06463521 0.54469675 1.2079417e-038
-0.057447098 -0.06657058 0.5407694 1.207906e-038
0.037316926 -0.065324709 0.54070932 1.1711349e-038
0.04405563 -0.065012515 0.54596233 1.1157818e-038
-0.071743473 -0.054313913 0.54738235 9.9596378e-039
-0.064981483 -0.055120021 0.5429706 1.005075e-038
0.037841491 -0.054664899 0.54086691 1.0881228e-038
0.044419046 -0.055133238 0.54613954 1.0328057e-038
-0.072024666 -0.045135982 0.54737508 9.3128404e-039
-0.064982951 -0.044910349 0.54267329 9.2213637e-039
-0.059210524 -0.040263157 0.54000002 8.2994046e-039
0.036268834 -0.044468746 0.54139769 9.6826879e-039
0.043104645 -0.045232009 0.54698271 9.6830495e-039
-0.071620055 -0.035581399 0.54751527 8.0221002e-039
-0.064927176 -0.034841653 0.5441727 8.1142916e-039
-0.057229418 -0.03368767 0.54063284 7.8380663e-039
0.028894736 -0.032210525 0.54000002 9.2206294e-039
0.035604306 -0.034744799 0.54336232 9.497575e-039
0.041797046 -0.035067543 0.54766661 9.2217098e-039
-0.071113162 -0.029055262 0.54900002 8.6678213e-039
-0.064472809 -0.025880998 0.54725683 7.7455119e-039
-0.055301402 -0.02498376 0.54324031 7.7455105e-039
-0.047738273 -0.022224229 0.54065514 7.8373446e-039
0.017810525 -0.021126317 0.54000002 8.4823483e-039
0.025824079 -0.024056574 0.54044354 8.4834287e-039
0.034609783 -0.025333807 0.54564524 8.4827084e-039
0.04157114 -0.028001841 0.54849994 8.8514797e-039
-0.061065622 -0.017145449 0.54868746 8.4834371e-039
-0.054689806 -0.014896561 0.54636943 8.574911e-039
-0.044826314 -0.01471783 0.54310071 8.2986843e-039
-0.036115047 -0.013054641 0.54094839 8.2068488e-039
-0.02830263 -0.01125 0.54000002 8.2064901e-039
0.0080526322 -0.011210526 0.54000002 8.4823539e-039
0.016221885 -0.014245214 0.54076648 8.9433236e-039
0.024843179 -0.014796249 0.54448187 9.3128306e-039
0.032710809 -0.015750075 0.54808325 9.4053878e-039
-0.053569421 -0.0055230106 0.54800004 8.4823525e-039
-0.045034222 -0.0047889994 0.54614031 8.6671067e-039
-0.035046674 -0.0049594976 0.54366022 8.6671053e-039
-0.025389239 -0.0048763491 0.54105681 8.7589408e-039
-0.015120564 -0.0044380864 0.54066706 8.851135e-039
-0.0052800314 -0.0039136987 0.54071939 9.0366025e-039
0.0051403004 -0.0051399162 0.54043859 9.6812558e-039
0.014303242 -0.0047790888 0.54058164 8.2061117e-039
0.025507813 -0.0047373227 0.54305905 9.9581986e-039
0.031263154 -0.0014210526 0.54000002 7.0046622e-039
-0.052227933 0.0020703948 0.54874986 8.4819909e-039
-0.044769395 0.0042060153 0.54808247 8.7589408e-039
-0.03501847 0.0047995937 0.54680955 8.9436922e-039
-0.024872459 0.0047871759 0.54524004 8.9440509e-039
-0.014857137 0.0048234044 0.5447337 9.2199189e-039
-0.0048280181 0.0047401432 0.54459381 9.1284408e-039
0.0048812772 0.0047544991 0.54406887 8.8518525e-039
0.015012023 0.0044428259 0.54416853 6.4533157e-039
0.025006611 0.0048254388 0.54136044 8.6674542e-039
0.032176662 0.0053980411 0.54074436 8.6678213e-039
-0.041415788 0.010113158 0.54900002 9.0355249e-039
-0.034556683 0.01182606 0.54837507 9.1277219e-039
-0.024819896 0.012749446 0.54753864 9.1284365e-039
-0.015917351 0.011948344 0.5476445 9.3124733e-039
-0.0043712314 0.012549524 0.54764414 9.1280792e-039
0.0036446671 0.012026939 0.54834217 9.2202748e-039
0.010388345 0.014103383 0.54900002 9.4050248e-039
0.02614698 0.014345534 0.5440129 7.189799e-039
0.032668632 0.015311339 0.54345566 1.0420259e-038
0.027932942 0.02346682 0.54741377 9.6819719e-039
0.032890473 0.024747059 0.54485285 9.2206238e-039
0.031780034 0.032437366 0.54795998 9.6823194e-039
0.036404211 0.097977482 0.54705125 2.0287746e-038
0.04450915 0.098303452 0.5427438 2.0102993e-038
0.05068421 0.09757895 0.54000002 1.9365065e-038
-0.0016357895 0.10900632 0.54840004 1.9919322e-038
0.0037657896 0.10913664 0.54671425 2.037994e-038
0.019431228 0.10844912 0.54560006 1.9919326e-038
0.02315283 0.10791666 0.54383868 1.9734933e-038
0.03550892 0.10274982 0.54287517 1.9734932e-038
0.042081434 0.10140658 0.5410555 1.9735292e-038
-0.031896282 0.11523286 0.54127276 8.7513121e-039
-0.025176473 0.11523475 0.54330134 1.2543643e-038
-0.014637375 0.11561556 0.54391599 2.1301169e-038
-0.0049361335 0.11422084 0.5450092 2.1116779e-038
0.0048556519 0.11415931 0.54321659 2.074908e-038
0.014307364 0.11305021 0.54246557 2.0380303e-038
0.021008989 0.11085942 0.54124999 2.0104075e-038
-0.14218943 0.12801993 0.54699993 8.3818079e-039
-0.13498707 0.12663653 0.54451483 1.1884513e-038
-0.12508267 0.12645306 0.54537004 1.3084504e-038
-0.11544504 0.12657705 0.54407471 1.3176338e-038
-0.10512371 0.12630793 0.5449 1.3267812e-038
-0.095151953 0.12633529 0.54436213 1.3359646e-038
-0.085224755 0.12647244 0.54382473 1.3175262e-038
-0.07494171 0.12686297 0.54485917 1.2621712e-038
-0.065251343 0.12735565 0.5438593 1.3359646e-038
-0.055986017 0.127085 0.54335016 1.3360005e-038
-0.045864247 0.12771386 0.5406667 1.3544759e-038
-0.036884498 0.12864168 0.5431667 1.3177057e-038
0.087807894 0.1290728 0.54699999 7.4616537e-039
0.094389476 0.12954473 0.54899997 9.1219009e-039
0.10350255 0.12918694 0.54829997 9.5818014e-039
0.13844211 0.12930878 0.54799998 1.2809002e-038
-0.14425981 0.13538766 0.54557598 6.2638588e-039
-0.13897769 0.13337761 0.54038095 7.0914432e-039
-0.035619136 0.1315649 0.54145455 1.3084495e-038
0.078376435 0.1316193 0.54057139 6.260605e-039
0.085175939 0.13150217 0.54295355 8.4765329e-039
0.095351785 0.13197406 0.54578948 9.8591198e-039
0.10483959 0.13200054 0.54412872 1.0595958e-038
0.11508293 0.13244043 0.54379988 1.1610827e-038
0.12514026 0.13234429 0.54463172 1.2071439e-038
0.13518456 0.13238831 0.5438627 1.2624608e-038
0.14486684 0.13521607 0.54503465 1.1518261e-038
0.15185213 0.13798907 0.54757142 8.0170079e-039
-0.14488578 0.14205976 0.54347372 3.5009032e-039
-0.13973685 0.1411579 0.54000002 5.9865418e-039
0.14699914 0.14470722 0.54146802 7.2794414e-039
0.15280999 0.14512631 0.54723084 7.0032217e-039
0.14660044 0.15067606 0.54049999 6.1741757e-039
0.15127017 0.15031579 0.54400003 6.1745638e-039
-0.021299299 -0.11223053 0.55773336 1.6965783e-038
-0.01629979 -0.11215837 0.55776006 1.6506246e-038
-0.0052555562 -0.1115558 0.5582667 1.6321495e-038
0.0037593569 -0.1104924 0.55900002 1.6321492e-038
-0.051141858 -0.10123333 0.55828577 1.5398821e-038
-0.044707041 -0.10226937 0.5566389 1.5583931e-038
-0.034707781 -0.10343949 0.55443639 1.6044908e-038
-0.025184179 -0.10604264 0.55478686 1.6413329e-038
-0.014851765 -0.1063616 0.55397266 1.6413333e-038
-0.0049112695 -0.10645732 0.55321229 1.6321495e-038
0.0050381627 -0.10509942 0.55404943 1.6137464e-038
0.014677579 -0.10391819 0.55515194 1.6321491e-038
0.024310203 -0.1034779 0.55723643 1.6321494e-038
0.031872805 -0.10052193 0.55900002 1.5860873e-038
-0.06166064 -0.091634095 0.55787504 1.4292827e-038
-0.054639962 -0.09439934 0.55550677 1.4661616e-038
-0.045586977 -0.096492805 0.55237699 1.5030758e-038
-0.036844112 -0.098592475 0.5505715 1.5491378e-038
0.016265029 -0.098701522 0.55066675 1.6229291e-038
0.026088554 -0.09706232 0.5523954 1.5584284e-038
0.035103038 -0.094907805 0.55431384 1.5768311e-038
0.042317074 -0.092672698 0.55604166 1.5122945e-038
-0.071300589 -0.081089474 0.55800003 1.2448925e-038
-0.064531103 -0.084350325 0.55483341 1.3555625e-038
-0.057076044 -0.087353118 0.55168754 1.4293194e-038
0.03735625 -0.088289797 0.55037504 1.5675754e-038
0.04504076 -0.085225336 0.55443472 1.4569049e-038
0.050738156 -0.081475586 0.55616671 1.4108073e-038
-0.072780862 -0.074040405 0.55527079 1.2540759e-038
-0.067663886 -0.076095819 0.55211765 1.2817341e-038
0.047899939 -0.075724386 0.55193335 1.3001728e-038
0.052511532 -0.074542366 0.55573344 1.2817698e-038
-0.080714919 -0.061148245 0.55766672 1.0882333e-038
-0.075297564 -0.065139629 0.55399984 1.1434405e-038
-0.06900914 -0.06804423 0.55014288 1.2354933e-038
0.049102981 -0.064972922 0.55043483 1.106562e-038
0.054581363 -0.064529248 0.55540258 1.171027e-038
0.060313158 -0.06080351 0.55900002 1.2725127e-038
-0.081857212 -0.054158118 0.55648577 9.4989945e-039
-0.076617241 -0.0554322 0.55181038 1.0052561e-038
0.048640747 -0.054432552 0.55022222 1.0327696e-038
0.054716233 -0.054746624 0.5552476 9.7745192e-039
0.060313158 -0.0559 0.55900002 1.0881576e-038
-0.081820056 -0.044795625 0.55571067 8.0224463e-039
-0.076918192 -0.044917393 0.55172229 8.8529399e-039
0.047573838 -0.044437654 0.55160528 9.8663603e-039
0.05358877 -0.045421924 0.55630678 9.4061024e-039
0.064523682 -0.042038817 0.55724996 8.9440439e-039
-0.081273071 -0.035628978 0.55645835 8.4837986e-039
-0.076542899 -0.034710757 0.55275404 8.2997661e-039
0.046502575 -0.034872133 0.5521667 9.4057395e-039
0.051870301 -0.03624174 0.55663896 9.9585545e-039
0.064026535 -0.038807459 0.55825001 8.6674542e-039
-0.081121162 -0.025450293 0.55866665 9.2213609e-039
-0.075334571 -0.024903394 0.55416143 8.9451341e-039
-0.067633018 -0.022514112 0.55036366 8.574911e-039
0.038245529 -0.021922896 0.55050004 9.4983009e-039
0.04549906 -0.024568738 0.55447704 8.944404e-039
0.050806884 -0.026624424 0.55815387 8.3912274e-039
-0.081327364 -0.016888756 0.55881822 7.8362572e-039
-0.074861757 -0.015087991 0.55527371 8.1139315e-039
-0.065406524 -0.014544679 0.55097795 8.4830755e-039
0.037118472 -0.013961774 0.55122 9.4057465e-039
0.043625701 -0.015379734 0.55589974 9.7741717e-039
-0.073360808 -0.0059307497 0.55683333 7.8373418e-039
-0.065071933 -0.0048500611 0.55353034 7.8369803e-039
-0.057792556 -0.0032224958 0.55035484 8.1135686e-039
0.029258246 -0.0074347369 0.55039996 1.2356364e-038
0.035281215 -0.005748942 0.55533338 1.0511734e-038
0.041822262 -0.0077635967 0.557625 9.6816145e-039
-0.070120178 0.00049035088 0.55900002 8.0199408e-039
-0.064113207 0.0042123944 0.55653614 7.9291745e-039
-0.055869151 0.0055356701 0.55198735 8.2979626e-039
-0.047763158 0.008266082 0.55000007 8.8507721e-039
0.014848485 0.0088545457 0.55236363 7.4685495e-039
-0.062342696 0.014620738 0.55764449 8.8522168e-039
-0.055023406 0.015179971 0.55414051 8.7592995e-039
-0.045061961 0.015080361 0.55214006 8.9433306e-039
-0.035035033 0.017180618 0.55112487 8.8514923e-039
-0.025344346 0.01808938 0.55068886 9.1277191e-039
-0.014376409 0.016746702 0.55115771 9.5894189e-039
-0.0053389058 0.017720746 0.55117643 9.2206364e-039
0.0054446403 0.016495833 0.55036092 9.6816159e-039
0.014324316 0.013081723 0.55401844 8.1142762e-039
0.021417357 0.013842106 0.55821055 5.6242627e-039
-0.061551839 0.02182276 0.55805254 8.20576e-039
-0.054317318 0.024399042 0.55605066 8.2057572e-039
-0.044776846 0.025295431 0.55538398 8.8507693e-039
-0.035058998 0.025326082 0.55508012 9.0351633e-039
-0.025275743 0.025281301 0.55412024 9.2199133e-039
-0.015077016 0.025300769 0.55454564 9.681253e-039
-0.0048619555 0.025272168 0.55391008 9.5894175e-039
0.0048600533 0.025271444 0.55386019 9.5890532e-039
0.014937477 0.026497377 0.55585909 9.2206336e-039
0.024039544 0.025952844 0.55221725 9.7741703e-039
-0.042800628 0.031032206 0.55900002 9.0351535e-039
-0.034506589 0.032041226 0.55861294 9.403943e-039
-0.024690976 0.032783993 0.55778831 9.5890546e-039
-0.015142843 0.032517191 0.55768883 9.7734486e-039
-0.0044240691 0.032867748 0.55788004 9.6816103e-039
0.0046279859 0.032977469 0.5579434 9.773443e-039
0.0154804 0.034786068 0.55664003 9.9578385e-039
0.025055354 0.034749154 0.55213404 9.9581986e-039
0.12465688 0.037594326 0.55497241 1.2266722e-038
0.018634211 0.041176666 0.55619997 9.035871e-039
0.023292441 0.041474644 0.55376184 9.2202552e-039
0.12477652 0.04425884 0.55711108 9.0398717e-039
0.12454913 0.053448245 0.55900002 8.2976081e-039
0.03342222 0.096837431 0.55044442 2.0748361e-038
-0.02268232 0.10842409 0.55254996 8.3919589e-039
-0.015066682 0.10769235 0.55398107 1.7243488e-038
-0.0063947644 0.10812721 0.55229026 1.8812614e-038
-0.025255835 0.11160356 0.55110347 1.134004e-038
-0.015831163 0.11143756 0.55187505 1.9918963e-038
-0.0082464917 0.11011492 0.55299997 2.0010437e-038
0.087727517 0.11870103 0.5564546 7.8359041e-039
0.092178941 0.1190035 0.55599993 1.0789065e-038
-0.1512855 0.12743935 0.55730772 7.0014154e-039
-0.14500046 0.12479555 0.55438352 1.0133168e-038
-0.13549753 0.12297161 0.55501819 1.3175981e-038
-0.12526463 0.12241145 0.55400008 1.3267815e-038
-0.1147363 0.1230522 0.5529322 1.3175978e-038
-0.10503088 0.12334973 0.55385727 1.336001e-038
-0.095307231 0.12368231 0.55495828 1.3452563e-038
-0.08470434 0.12390739 0.55475795 1.3175252e-038
-0.075084031 0.12453333 0.55530298 1.2621354e-038
-0.065536425 0.12473885 0.55457157 1.3359283e-038
-0.054019146 0.12597176 0.55464816 1.3175969e-038
-0.044747654 0.1263071 0.55628902 1.2715351e-038
-0.036933746 0.12594508 0.55287504 1.2070344e-038
0.088006802 0.12518796 0.55484444 9.7741801e-039
0.094514407 0.12578465 0.55528128 9.8645498e-039
0.10496334 0.1283302 0.55565858 9.0282647e-039
0.11485758 0.12829383 0.55517787 1.087181e-038
0.12479614 0.12826107 0.55522013 1.2347662e-038
0.13419576 0.12824343 0.55357456 1.2532412e-038
0.14501961 0.12896846 0.55611122 1.2808999e-038
0.15249494 0.12885056 0.55821431 1.3084867e-038
-0.15351623 0.13581443 0.55587715 3.5930848e-039
-0.14881968 0.13366686 0.55122221 6.44825e-039
0.10842574 0.1300848 0.55266666 1.0041688e-038
0.11532588 0.13083124 0.55239999 1.1148761e-038
0.12450162 0.13039932 0.55068421 1.2163632e-038
0.13291666 0.13001667 0.551 1.2532772e-038
0.14709674 0.13119027 0.55269992 1.2900834e-038
0.15478821 0.13419534 0.55500007 1.041264e-038
0.16046052 0.13750814 0.55842859 8.1095664e-039
-0.15229474 0.14123434 0.55114281 8.4077908e-045
0.15644744 0.14533083 0.55193335 6.8188332e-039
-0.011466959 -0.12014767 0.56833339 1.6133823e-038
-0.0084795319 -0.12021813 0.5686667 1.7886293e-038
-0.042393509 -0.11067702 0.56580001 1.6319326e-038
-0.03484685 -0.11236996 0.56569457 1.6320045e-038
-0.026518062 -0.11280533 0.56318521 1.6597725e-038
-0.012700629 -0.11586484 0.56503135 1.6966141e-038
-0.007520495 -0.11567264 0.56436366 1.6597719e-038
0.0046358318 -0.11454999 0.56405675 1.6505881e-038
0.014115716 -0.11229283 0.56475002 1.6229288e-038
0.020705264 -0.11092105 0.56199998 1.6413328e-038
-0.060785964 -0.10064562 0.56800002 1.5214424e-038
-0.05499826 -0.10409721 0.56657517 1.502859e-038
-0.045001779 -0.10762668 0.56433338 1.6044185e-038
-0.036097564 -0.10828847 0.56159091 1.6229659e-038
-0.028517105 -0.10964167 0.56050003 1.669028e-038
0.01585 -0.1093721 0.56113327 1.6322204e-038
0.026209274 -0.10752305 0.56361908 1.6413691e-038
0.034522403 -0.10410583 0.56350905 1.650552e-038
0.041992523 -0.10210292 0.56853336 1.5860148e-038
-0.072305262 -0.090689465 0.56649995 1.3830055e-038
-0.0650056 -0.094343498 0.56378013 1.420064e-038
-0.057635091 -0.098350525 0.56059992 1.4754169e-038
0.039789476 -0.099719301 0.56 1.6598065e-038
0.046519257 -0.095193945 0.56545007 1.4845998e-038
0.051957767 -0.092573822 0.56464994 1.4570497e-038
-0.080503218 -0.080502041 0.56766665 9.68126e-039
-0.074003033 -0.084817007 0.56443399 1.2634033e-038
-0.068157896 -0.087761901 0.56071419 1.337088e-038
0.048921276 -0.087763377 0.56049997 1.4661608e-038
0.053829227 -0.084891789 0.56353849 1.4108794e-038
-0.082095146 -0.074162267 0.56559986 1.1710279e-038
-0.07775601 -0.076037064 0.56294292 1.2540759e-038
0.057629354 -0.075284816 0.56360978 1.2910252e-038
0.062797986 -0.072225951 0.56589997 1.3002091e-038
-0.090288304 -0.061356723 0.5686667 9.3095782e-039
-0.084117427 -0.064565033 0.56333959 1.0973432e-038
-0.079087719 -0.06926316 0.56 1.1711363e-038
0.058731433 -0.068093851 0.56183332 1.2633666e-038
0.06415718 -0.064980574 0.56600004 1.2633308e-038
-0.090932898 -0.057580847 0.5675 9.0355094e-039
-0.086756557 -0.055341814 0.56212264 9.9585503e-039
0.064217225 -0.0553969 0.56352764 1.1065264e-038
-0.091797814 -0.045224123 0.56720006 8.7585694e-039
-0.087305054 -0.045055754 0.56273216 7.3774356e-039
0.058326591 -0.043649402 0.56064004 8.7610932e-039
0.062615275 -0.045553837 0.56137747 8.5759774e-039
-0.091400944 -0.035215352 0.56808347 8.9447768e-039
-0.086245887 -0.03482404 0.56272584 8.944781e-039
0.05682496 -0.034412488 0.56215495 9.9589147e-039
0.062908716 -0.03451379 0.56580859 9.3139054e-039
-0.091817327 -0.024032963 0.56783348 8.1135686e-039
-0.086003542 -0.024777669 0.563039 8.7603799e-039
0.055368982 -0.024604954 0.56317288 8.8525685e-039
0.061425488 -0.027321106 0.56756246 8.6674514e-039
-0.090715401 -0.017600559 0.56736356 7.5596465e-039
-0.085307002 -0.014428638 0.5633859 8.2035726e-039
0.048631802 -0.013907748 0.56141669 9.8660058e-039
0.053769633 -0.015227864 0.56492543 9.221358e-039
-0.08433596 -0.0051966989 0.56621057 9.3084838e-039
-0.077506095 -0.0033380364 0.5619722 7.6529505e-039
0.038250964 -0.0011793859 0.56049997 9.774529e-039
0.045576297 -0.0043139285 0.56349987 9.774529e-039
0.05134543 -0.0061021312 0.56671423 9.5901392e-039
-0.082405977 0.0014957734 0.56809092 7.8373446e-039
-0.074651338 0.0044465652 0.56409627 7.376358e-039
-0.068146154 0.0071464083 0.56080961 8.0213771e-039
0.037601292 0.0044814781 0.5633409 8.5756215e-039
0.044026721 0.0046995124 0.56612664 1.023478e-038
-0.072715148 0.014432685 0.56645232 8.2061229e-039
-0.067447543 0.014769035 0.56121993 8.6667423e-039
0.015824316 0.017018693 0.56243587 6.0852423e-039
0.021951962 0.017961971 0.56052941 7.1908682e-039
0.037994381 0.012040608 0.56770581 9.6823236e-039
0.041966062 0.0117858 0.56868762 1.0142947e-038
-0.071654603 0.024479607 0.56782144 8.2975983e-039
-0.065583833 0.025203088 0.56266665 8.1132042e-039
-0.05584852 0.028998412 0.56031245 8.2050341e-039
-0.049614038 0.029964913 0.56 8.4823329e-039
0.019226316 0.021198247 0.56199998 9.3135214e-039
0.022151168 0.020512961 0.56122226 9.679081e-039
-0.070376314 0.030945614 0.56900001 7.9291773e-039
-0.064078324 0.033632759 0.56680948 7.8358887e-039
-0.055203747 0.034845658 0.56416303 8.1124755e-039
-0.04539597 0.035308231 0.56219512 8.481621e-039
-0.035372145 0.036744844 0.56075764 9.2199091e-039
-0.025236186 0.037664767 0.56052727 9.6812488e-039
-0.014691263 0.037376426 0.56119251 1.0142228e-038
-0.0053543323 0.037778467 0.56108183 9.9578371e-039
0.0049824342 0.037735369 0.56114638 9.9581902e-039
0.011857309 0.039071932 0.56066668 1.0234423e-038
0.13162631 0.03993158 0.56199998 8.3988337e-039
-0.060393859 0.040428948 0.56900001 7.5578416e-039
-0.053364273 0.041711461 0.56817245 8.664922e-039
-0.044174895 0.043819115 0.56676942 8.7578492e-039
-0.03476546 0.044892892 0.56433308 9.1269918e-039
-0.024728745 0.045009002 0.56378853 9.864917e-039
-0.014733804 0.044880506 0.56478709 1.0234064e-038
-0.0049848924 0.045080885 0.56530762 1.0141868e-038
0.0050857081 0.044835284 0.56545824 1.0142224e-038
0.013943085 0.045062557 0.56649995 1.0235144e-038
0.12671681 0.04839284 0.56038886 9.8696295e-039
0.13181816 0.045342978 0.56182361 1.0608644e-038
-0.033863805 0.051357176 0.56800008 9.2191846e-039
-0.025169805 0.052057914 0.5675779 9.7727199e-039
-0.016454251 0.051553506 0.5684616 1.0326257e-038
-0.0042425441 0.050411403 0.56900001 1.0418814e-038
0.0029947367 0.050411403 0.56900001 1.0510291e-038
0.12613033 0.053459886 0.56253201 9.1287925e-039
0.13448535 0.0551867 0.56572825 1.0329522e-038
0.12877369 0.06139211 0.56900001 1.336289e-038
0.13452913 0.061439432 0.56828135 9.7745388e-039
-0.15203606 0.11894114 0.56690907 1.1700123e-038
-0.14416151 0.11914608 0.56491995 1.3083786e-038
-0.13582066 0.11928463 0.56499994 1.2991947e-038
-0.12228509 0.11929035 0.56900001 1.3452921e-038
-0.073371053 0.11929035 0.56900001 1.2900094e-038
-0.062889472 0.11929035 0.56900001 1.114731e-038
-0.058896489 0.11929035 0.56900001 1.0224647e-038
-0.15479538 0.12490698 0.5640164 7.8297384e-039
-0.14651993 0.12126388 0.56224 1.2161459e-038
-0.13428117 0.12060546 0.56195837 1.3175981e-038
-0.12473756 0.12065866 0.56514299 1.3544397e-038
-0.11503202 0.1211347 0.5658049 1.34522e-038
-0.10488652 0.121165 0.56453341 1.3360008e-038
-0.095311865 0.12133925 0.56481624 1.3268532e-038
-0.084581681 0.12173082 0.5634706 1.3452561e-038
-0.074872203 0.1219218 0.56457144 1.3175969e-038
-0.064642429 0.12227072 0.5650323 1.2530959e-038
-0.055534337 0.12302346 0.56430769 1.2069619e-038
-0.048629437 0.12280663 0.56377774 1.1331693e-038
0.099412277 0.12463299 0.56159997 8.4827238e-039
0.10538553 0.12503147 0.56311285 7.7397147e-039
0.11556682 0.12595651 0.56443185 9.6729083e-039
0.12474283 0.12599742 0.56557775 1.1701928e-038
0.1349728 0.1262468 0.56638002 1.2532049e-038
0.14463845 0.12684096 0.5656364 1.27168e-038
0.15553281 0.12713769 0.56693 1.2992671e-038
0.16166088 0.12813683 0.56788236 1.2716443e-038
-0.16074948 0.13535425 0.56585717 9.208773e-040
-0.1578742 0.13364656 0.56204349 3.3172238e-039
0.15836404 0.13098568 0.56066668 1.2623882e-038
0.16335087 0.13467827 0.56403029 8.293222e-039
0.15980001 0.14396842 0.56400001 7.3737923e-039
0.16375786 0.14214556 0.5648095 7.3727189e-039
-0.0080000004 -0.1215 0.56999999 9.0347668e-039
0.0048763789 -0.12106197 0.57164288 1.7242016e-038
0.015107213 -0.12071131 0.57577777 1.7151253e-038
0.022347368 -0.12037106 0.579 1.7426755e-038
0.032476753 -0.12026711 0.57850003 1.0236222e-038
-0.05113465 -0.11079079 0.5715 9.5872315e-039
-0.043576315 -0.11303129 0.57099998 1.1982862e-038
-0.038567543 -0.11570263 0.57099998 9.7712514e-039
-0.026337346 -0.11807302 0.57161915 1.3366183e-038
0.0076461998 -0.11849438 0.5709334 1.6690277e-038
0.015483296 -0.11726366 0.57308686 1.6137092e-038
0.02530463 -0.11518801 0.57560283 1.6044542e-038
0.03467666 -0.11418402 0.57598346 1.5860508e-038
0.042127669 -0.11168189 0.57609087 1.6321852e-038
-0.071340829 -0.10131393 0.57588893 1.0323366e-038
-0.063716419 -0.10306889 0.57217646 1.0416283e-038
-0.055509485 -0.10705047 0.57100004 1.1891408e-038
0.036274344 -0.1087001 0.57137501 1.6506241e-038
0.045320231 -0.10486902 0.57191235 1.5123309e-038
-0.073585354 -0.094708025 0.57264102 1.0785063e-038
-0.067533396 -0.098474793 0.57140005 1.1061654e-038
0.046734035 -0.099369824 0.5704 1.466305e-038
-0.081521638 -0.084037431 0.57366663 9.678718e-039
-0.078351617 -0.086211547 0.57115388 1.0233698e-038
0.064449117 -0.080057889 0.574 1.4201357e-038
-0.091452628 -0.070231579 0.57599998 9.862389e-039
0.063964106 -0.076818556 0.57235998 1.3555266e-038
-0.091875166 -0.066270858 0.57520837 9.5865182e-039
-0.08809346 -0.06704843 0.57277775 9.9581972e-039
-0.092824563 -0.05970877 0.57200003 9.678711e-039
0.068512455 -0.04402544 0.57513338 9.1287967e-039
0.071735255 -0.043710243 0.57560718 9.1287967e-039
-0.094833858 -0.032611825 0.57356536 8.2050467e-039
0.068344161 -0.035256144 0.57682759 8.6681759e-039
0.072695345 -0.036682189 0.57778567 9.1287939e-039
-0.096345693 -0.027416052 0.57663333 8.0202897e-039
0.065343268 -0.025130332 0.57477415 8.2983101e-039
0.071105264 -0.029457895 0.579 8.8518455e-039
0.058590978 -0.014092147 0.57323807 8.8518483e-039
0.061764505 -0.015746459 0.57546431 8.8514909e-039
-0.087077193 -0.00050043862 0.57049996 1.0138962e-038
0.055769786 -0.0050998242 0.57435995 9.5897762e-039
0.060517371 -0.0084149111 0.57780004 9.1291596e-039
-0.083224729 0.0051588514 0.57187873 8.3912358e-039
-0.078749478 0.008526491 0.57180005 8.0220988e-039
0.048602775 0.0067062867 0.57316667 9.9585573e-039
0.051725753 0.0042603277 0.57574189 9.9581986e-039
-0.08158762 0.01374626 0.57357901 8.5752712e-039
-0.077587992 0.015226276 0.57163632 8.4830727e-039
0.039177891 0.017584383 0.57260001 9.8659862e-039
0.045328382 0.01579578 0.57372987 1.0050386e-038
0.051180899 0.015049025 0.57833344 1.0235141e-038
-0.07602822 0.025142141 0.57378256 8.6667381e-039
0.039229296 0.02199842 0.57779998 8.205753e-039
0.04419231 0.024744827 0.57794327 9.4972065e-039
0.053971857 0.023590736 0.57808 1.0050024e-038
-0.071985967 0.033569738 0.57437497 8.3894394e-039
-0.066684954 0.037692975 0.57185715 7.9270039e-039
0.036351535 0.036221478 0.57841927 8.8521986e-039
0.041139472 0.032505263 0.579 9.6815935e-039
-0.062765233 0.042428866 0.57327271 7.6504128e-039
-0.055413719 0.045775127 0.57337254 7.5582017e-039
-0.047198486 0.048473928 0.57181829 8.6642032e-039
0.018427925 0.048112135 0.57033336 1.0419178e-038
0.025603853 0.046555426 0.57498354 9.8656386e-039
0.032858707 0.042300422 0.57892603 9.9581902e-039
-0.052522097 0.051193476 0.57781249 8.0184694e-039
-0.044316106 0.054243673 0.57482821 8.4808937e-039
-0.035596136 0.056021582 0.57252377 9.0340689e-039
-0.024850367 0.057409663 0.57178175 9.5879644e-039
-0.014629483 0.056034282 0.57220888 1.0418449e-038
-0.0051018195 0.055216476 0.57329279 1.0510648e-038
0.0051658303 0.05504752 0.5726428 1.0511007e-038
0.01500926 0.054763164 0.57397699 1.0879793e-038
0.023191761 0.053143855 0.57605553 1.0696121e-038
0.12741688 0.058828287 0.57075 1.3363243e-038
-0.040631577 0.060947366 0.579 8.5727292e-039
-0.034509987 0.062400088 0.57691491 8.8493133e-039
-0.025078611 0.063551292 0.57703638 9.3113719e-039
-0.015734298 0.062739454 0.57714003 9.9571112e-039
-0.004817178 0.061105337 0.57808334 1.0510649e-038
0.0045632091 0.061619028 0.57800001 1.0603201e-038
0.011884737 0.06064263 0.579 1.1063466e-038
0.12781657 0.064613476 0.57156658 1.3729872e-038
0.13479494 0.06662304 0.57188326 9.7745374e-039
0.14101087 0.067420065 0.57462496 8.575997e-039
0.12873736 0.074582003 0.57568967 1.3822782e-038
0.13378192 0.073976696 0.5760538 1.1063456e-038
0.14020088 0.071365789 0.57700002 8.8525783e-039
0.11912369 0.089971051 0.57300001 1.2534583e-038
0.12694342 0.086097375 0.57824999 1.3363643e-038
0.13103685 0.080755264 0.579 1.2442384e-038
0.11826136 0.094264939 0.57160717 1.364821e-038
0.12494063 0.095214345 0.57637662 1.4203186e-038
0.12556286 0.10487723 0.57709992 1.1344032e-038
0.13052894 0.10818157 0.579 1.2541861e-038
-0.16146716 0.11858948 0.57600003 7.7375553e-039
-0.1557889 0.11854473 0.57551438 1.0871097e-038
-0.14450835 0.1177271 0.57492489 1.3268179e-038
-0.135011 0.11758389 0.57534409 1.3360008e-038
-0.12539887 0.11755805 0.5743773 1.3175975e-038
-0.11506054 0.11703283 0.57420272 1.34522e-038
-0.10494962 0.11780911 0.57340384 1.3727711e-038
-0.095196515 0.11787059 0.57411665 1.3452199e-038
-0.084931113 0.11849632 0.57393759 1.2807195e-038
-0.076256663 0.11934464 0.57540911 1.2161104e-038
-0.066810526 0.11995526 0.57700002 1.1055839e-038
-0.052764911 0.11927744 0.57757145 8.9353446e-039
-0.044856939 0.11891031 0.57572722 8.9349817e-039
-0.03988114 0.11913816 0.57550001 8.8431462e-039
0.1258353 0.11167961 0.57624996 1.1250025e-038
0.13052894 0.11021316 0.579 1.2265266e-038
-0.16129807 0.12348998 0.57186371 6.9106687e-039
-0.15844831 0.12269689 0.57092315 7.3694903e-039
-0.10907105 0.12012894 0.57300001 1.3544043e-038
-0.090999998 0.1205 0.56999999 1.3084491e-038
-0.085033752 0.12184709 0.5714401 1.3361082e-038
-0.072305962 0.12043613 0.57639998 1.2254002e-038
-0.06672895 0.12042645 0.57442856 1.1517166e-038
-0.054408643 0.12157012 0.57524133 1.0040964e-038
-0.044462655 0.12269597 0.57335198 9.8562135e-039
-0.037466805 0.12406841 0.57327789 9.672188e-039
0.11675708 0.12337244 0.57353842 7.8289929e-039
0.12492058 0.1233265 0.57471114 1.0226427e-038
0.1354067 0.12355222 0.57492501 1.2347293e-038
0.14495482 0.12339149 0.57390559 1.2439855e-038
0.1536313 0.1236849 0.57279307 1.2808277e-038
0.16544399 0.12643796 0.57653481 1.2808633e-038
0.17014474 0.12900527 0.579 9.9512874e-039
0.16815239 0.13425344 0.57518178 7.6489442e-039
0.17199883 0.13567205 0.57774192 7.6500302e-039
0.024440978 -0.12146767 0.58042854 1.5858713e-038
0.030578947 -0.12078685 0.58099997 1.4200268e-038
0.028195966 -0.11919562 0.58019996 1.6505167e-038
0.030578947 -0.11976755 0.58099997 1.6228219e-038
0.074106924 -0.033183288 0.58010525 8.9436824e-039
0.068376899 -0.022036353 0.5812223 9.1277121e-039
0.073192716 -0.023862721 0.5844599 8.29795e-039
0.066752248 -0.01493021 0.58490914 9.2202762e-039
0.073414616 -0.016073987 0.5882895 9.1284408e-039
0.058556356 -0.0021725877 0.58299994 9.6819719e-039
0.064200051 -0.004901866 0.58815885 9.589779e-039
0.075561404 -0.0098333331 0.58999997 9.7727368e-039
0.056406833 0.0057999049 0.58363628 1.0234787e-038
0.061650097 0.0047918125 0.58926666 1.0512095e-038
0.055552788 0.015392966 0.5834583 1.0881235e-038
0.061174057 0.013667794 0.58957142 1.1526609e-038
-0.081102192 0.028232016 0.58516663 8.4819783e-039
