# .PCD v0.7 - Point Cloud Data file format
VERSION 0.7
FIELDS x y z rgb
SIZE 4 4 4 4
TYPE F F F F
COUNT 1 1 1 1
WIDTH 969
HEIGHT 1
VIEWPOINT 0 0 0 1 0 0 0
POINTS 969
DATA ascii
-0.1507342 0.13725001 0.54900002 1.4012985e-045
-0.14538266 0.13484284 0.54412681 5.0667673e-039
-0.13973685 0.13026315 0.54000002 7.2772834e-039
-0.03173684 0.13073683 0.54000002 1.3359995e-038
-0.016684212 0.13057894 0.54000002 1.3267078e-038
-0.0031600876 0.13030335 0.54016668 1.3083763e-038
0.005978947 0.13106322 0.54556513 1.2622067e-038
0.013517428 0.13113515 0.54639989 1.2438036e-038
0.025620501 0.13023585 0.54087502 1.2806461e-038
0.03512295 0.13125178 0.54056668 1.2715705e-038
0.045585874 0.13118336 0.54382139 1.2899383e-038
0.054206278 0.13083822 0.54031581 1.3453279e-038
0.062688828 0.13135573 0.5406 1.3360005e-038
0.076736838 0.13026315 0.54000002 1.2437679e-038
0.087394729 0.13061841 0.54000002 1.2806464e-038
0.096171848 0.13157427 0.54285377 1.2622791e-038
0.10489063 0.13148098 0.5427236 1.252988e-038
0.11553597 0.13168393 0.54384089 1.2161815e-038
0.12492771 0.1317309 0.5448305 1.2254373e-038
0.13459864 0.13146669 0.54245842 1.2069983e-038
0.14551705 0.13214718 0.54272556 1.2346932e-038
0.15467708 0.13468802 0.54590285 1.1149117e-038
-0.14630073 0.14107411 0.54150003 3.8697165e-039
0.15652698 0.14495787 0.54388887 7.0028588e-039
0.16111009 0.14783055 0.54716665 6.1734638e-039
0.15611075 0.15064365 0.54175001 6.0812626e-039
-0.0011178571 -0.11339605 0.55721438 1.6043815e-038
0.0036843948 -0.11284823 0.55768424 1.5859791e-038
0.014444519 -0.11103816 0.55825007 1.6044898e-038
0.02527396 -0.11130697 0.55806255 1.6229297e-038
0.035040911 -0.11170085 0.55858064 1.6505883e-038
0.044267736 -0.11105496 0.55807149 1.6322212e-038
0.05099649 -0.11032895 0.55900002 1.6321126e-038
-0.012317215 -0.10252307 0.55787498 1.4569775e-038
-0.0044376729 -0.10444777 0.55529338 1.5030392e-038
0.0048823874 -0.10535769 0.55367422 1.5399173e-038
0.014850982 -0.10548179 0.55284709 1.567612e-038
0.025102628 -0.10671798 0.5534668 1.5768317e-038
0.035365947 -0.1063465 0.55355173 1.5768316e-038
0.044866879 -0.10556738 0.55423456 1.5583927e-038
0.054499593 -0.10401068 0.55517656 1.5583564e-038
0.061748862 -0.10209956 0.55690002 1.5492085e-038
-0.023741487 -0.093876787 0.55651844 1.4292468e-038
-0.014864629 -0.094934329 0.55393678 1.4384664e-038
-0.0063516614 -0.096776269 0.55131906 1.4200272e-038
0.0033771931 -0.099868424 0.55000001 1.4660523e-038
0.056647442 -0.097965829 0.55080009 1.5583568e-038
0.064747483 -0.095185712 0.55370969 1.5030756e-038
0.072638147 -0.092049569 0.55783331 1.4201714e-038
-0.03237338 -0.083163947 0.55710346 1.2908809e-038
-0.025295574 -0.085110337 0.55325532 1.3554534e-038
-0.017540028 -0.087090246 0.55060005 1.4200264e-038
0.069232456 -0.087083332 0.55000001 1.4386106e-038
0.075217776 -0.084862344 0.5540626 1.4386106e-038
0.081015401 -0.081884995 0.55599999 1.4109868e-038
-0.040699124 -0.070610523 0.55900002 1.078868e-038
-0.034372319 -0.074647099 0.55508751 1.2079414e-038
-0.027319452 -0.077531926 0.55117857 1.2632947e-038
0.076961942 -0.074962862 0.55283034 1.1158174e-038
0.082568265 -0.074926585 0.55643147 1.1158893e-038
-0.041492213 -0.06414596 0.55751991 1.0511726e-038
-0.036350947 -0.065440685 0.55307251 1.1618795e-038
0.077403344 -0.065469258 0.55241448 1.1619508e-038
0.082964636 -0.064952463 0.55631691 1.1343285e-038
-0.041917935 -0.054671932 0.55595005 9.0365982e-039
-0.037503675 -0.055184826 0.552149 1.0142943e-038
0.078328662 -0.055242427 0.55081487 1.0973784e-038
0.083350785 -0.055217952 0.5559507 1.0605359e-038
-0.041999977 -0.044628609 0.55607498 9.1295169e-039
-0.036950994 -0.044761468 0.55240977 8.4830671e-039
0.078359999 -0.044736024 0.55092859 9.9596321e-039
0.082436703 -0.044995975 0.55470598 9.5904881e-039
-0.041620459 -0.03644719 0.55820006 9.4050262e-039
-0.036679044 -0.034798656 0.55399996 8.3908687e-039
0.077260777 -0.03464881 0.55115551 9.406101e-039
0.082258873 -0.036221825 0.55568749 9.0376829e-039
-0.034211241 -0.025286177 0.55404282 8.5745341e-039
-0.029429825 -0.020745613 0.55000001 8.757859e-039
0.076188855 -0.024616541 0.55264056 9.2217112e-039
0.081165269 -0.023389004 0.55626667 8.8525713e-039
-0.0318361 -0.01689828 0.55514807 9.3121089e-039
-0.028043181 -0.013402581 0.55197132 9.4043046e-039
0.069016315 -0.01303 0.55019999 8.2986731e-039
0.074745029 -0.015235249 0.55427176 8.3905142e-039
0.080605268 -0.019623974 0.5546667 8.6692521e-039
-0.030892106 -0.0034324564 0.55900002 9.77345e-039
-0.02536664 -0.0043841098 0.55285037 9.5890588e-039
-0.018393639 -0.0019901316 0.55000007 9.1277205e-039
0.065947361 -0.0038649824 0.55242854 8.0217275e-039
0.073200174 -0.0065097259 0.55588889 7.8380579e-039
-0.024236513 0.0046107764 0.55488318 9.8656457e-039
-0.016204232 0.00545377 0.55139494 9.311753e-039
0.046074528 0.0084101232 0.55045837 7.8362544e-039
0.056087751 0.0061270725 0.55270779 7.7444175e-039
0.064025253 0.0046411301 0.55619448 7.9288144e-039
-0.023196094 0.01361629 0.55699986 9.4046563e-039
-0.014814233 0.014581685 0.55419457 8.8507594e-039
-0.0050524306 0.015692707 0.55295831 8.2972311e-039
0.0046731834 0.015931636 0.55265939 8.4812637e-039
0.015003541 0.016618665 0.55307603 8.1128399e-039
0.025432508 0.016214767 0.55313939 8.0202855e-039
0.035013519 0.015465723 0.55312091 8.0206457e-039
0.044684488 0.01445224 0.55398005 8.0206443e-039
0.053596865 0.012656874 0.55614293 8.0206471e-039
0.061054219 0.010682281 0.55860007 8.0206471e-039
-0.020104386 0.020104386 0.55900002 9.3095684e-039
-0.013928209 0.021174453 0.55824 8.9418663e-039
-0.0048440075 0.023190649 0.5575282 8.7567603e-039
0.005524206 0.023754342 0.55772573 8.8504049e-039
0.014816174 0.024443548 0.55798817 9.0347976e-039
0.024683848 0.024761761 0.55787051 9.1273547e-039
0.035063967 0.02217203 0.558119 8.7585736e-039
0.042863999 0.021212064 0.55845004 8.1132028e-039
-0.12078685 0.049964037 0.55299997 2.8580645e-039
-0.11829785 0.048767641 0.55044448 2.6747621e-039
-0.12320291 0.056278642 0.5550226 9.8685505e-039
-0.11742923 0.054795794 0.55179995 1.2910292e-038
-0.10662281 0.051622808 0.55000001 1.1250046e-038
-0.12337813 0.062342256 0.55477768 1.0144395e-038
-0.11502862 0.065014049 0.55249304 9.5890574e-039
-0.10794847 0.067167729 0.5508846 1.1617e-038
-0.10449892 0.074354358 0.55191767 8.7574736e-039
-0.097760186 0.077178605 0.55361527 1.4291032e-038
-0.10276966 0.085550092 0.55364424 1.1988323e-038
-0.096677557 0.084769346 0.55249262 1.2726968e-038
-0.10319789 0.092311934 0.55324978 1.2544023e-038
-0.097438164 0.091221057 0.55216664 1.4664162e-038
0.097865447 0.10893649 0.55840003 1.9827129e-038
0.10517297 0.10839704 0.55755311 2.001188e-038
0.11342724 0.10785659 0.55734617 2.0103358e-038
-0.15040307 0.11953816 0.55850005 8.2907095e-039
-0.14428809 0.1186664 0.55656666 1.1331342e-038
-0.13548703 0.11873397 0.55538887 1.1515012e-038
-0.12717019 0.11915788 0.55446148 1.1329179e-038
-0.11559781 0.11981535 0.55449998 1.0594134e-038
-0.10349343 0.11959869 0.55650002 8.0130324e-039
-0.097557969 0.11879432 0.55481815 7.366214e-039
0.046318986 0.11856573 0.55765378 8.7600142e-039
0.055396624 0.1172448 0.55637866 1.8260158e-038
0.064859979 0.11713704 0.55478883 1.8813699e-038
0.07552883 0.11647762 0.55446255 1.8812978e-038
0.085129254 0.11461976 0.55428976 1.8720777e-038
0.095024563 0.11364762 0.55445474 1.82598e-038
0.10399827 0.11268651 0.55446953 1.7429685e-038
0.11071228 0.1112 0.55599999 1.7708432e-038
-0.1528853 0.12621565 0.55692112 6.6337189e-039
-0.14661767 0.12280891 0.55302131 8.8431546e-039
-0.13474129 0.1208684 0.55174077 1.1793039e-038
-0.12499257 0.12035637 0.55268419 1.1329899e-038
-0.11532622 0.12035161 0.5536471 1.0778164e-038
-0.104634 0.12095103 0.55243331 8.8435119e-039
-0.095669903 0.12109058 0.55179411 7.4591313e-039
-0.089013159 0.12085526 0.55000001 6.4439102e-039
-0.07071162 0.1225989 0.55024999 6.629054e-039
-0.065409519 0.12285823 0.55329251 1.0869275e-038
-0.052951258 0.12485401 0.55493754 1.2898291e-038
-0.044861685 0.12550789 0.55370599 1.2897573e-038
-0.038168155 0.12468326 0.55076927 1.2529151e-038
-0.0020035089 0.12698747 0.55285722 1.1791943e-038
0.0048062052 0.12760268 0.55470365 1.1514989e-038
0.01864728 0.12801272 0.55070007 1.1514273e-038
0.025187414 0.12745756 0.55528951 1.0869981e-038
0.034815907 0.12816401 0.55688572 1.0501205e-038
0.046163071 0.12407779 0.55493665 8.0144911e-039
0.055552281 0.1231152 0.55259377 1.4844214e-038
0.064714357 0.1260495 0.55169493 9.3985242e-039
0.075125575 0.12631004 0.55523163 8.016296e-039
0.085040674 0.12608045 0.55358148 8.7520254e-039
0.094736241 0.12769093 0.55284208 9.1186331e-039
0.10579241 0.12779586 0.55417949 1.02239e-038
0.11473083 0.12785648 0.55468428 1.1331325e-038
0.12474857 0.12772833 0.55421436 1.1701193e-038
0.13450226 0.1276211 0.55290711 1.197671e-038
0.14541514 0.12834439 0.55589586 1.2069618e-038
0.15407486 0.12859873 0.55602771 1.2254376e-038
0.16101421 0.12945771 0.55860007 1.2440564e-038
-0.15377457 0.13312383 0.55443913 2.6714956e-039
-0.14921448 0.13134649 0.55050004 6.4500381e-039
0.0053166668 0.13001667 0.551 1.2161443e-038
0.022597494 0.13053209 0.55142862 1.1977055e-038
0.034200877 0.13045526 0.55700004 1.132918e-038
0.068732679 0.13090812 0.55375004 1.1882704e-038
0.073274009 0.13075443 0.55089468 1.2435515e-038
0.088126309 0.13057543 0.55199999 1.2620989e-038
0.090547368 0.13025263 0.55199999 1.2344042e-038
0.10876141 0.13022105 0.55599999 1.1976335e-038
0.11518972 0.13063999 0.55042869 1.2160741e-038
0.14600232 0.13077652 0.55252939 1.2162534e-038
0.15557604 0.13084452 0.55140001 1.225474e-038
0.16294147 0.13532552 0.55455565 9.5825231e-039
0.15937135 0.14200293 0.55000001 7.8318992e-039
0.16494395 0.14401641 0.55354106 6.8199094e-039
-0.0028542106 -0.11288895 0.56099999 1.6688464e-038
0.0073359651 -0.11451409 0.56219995 1.6228928e-038
0.014961577 -0.11545806 0.56364697 1.6321852e-038
0.024218377 -0.11490006 0.56305408 1.6505886e-038
0.034131516 -0.11560458 0.56262076 1.6782476e-038
0.04468251 -0.11469159 0.56445706 1.6782472e-038
0.054610088 -0.11214422 0.56280768 1.5491376e-038
-0.022228533 -0.10197812 0.56305265 1.5398817e-038
-0.01682153 -0.10289545 0.56100005 1.5399539e-038
-0.0078736842 -0.10777105 0.56099999 1.6413335e-038
0.056530915 -0.10869451 0.56099993 1.6137097e-038
0.065566532 -0.10317227 0.56119359 1.5492089e-038
0.071783833 -0.10108659 0.56214279 1.5399536e-038
-0.040357895 -0.090680704 0.56800002 1.3277601e-038
-0.034218211 -0.094089791 0.56596982 1.4569054e-038
-0.02693031 -0.096804388 0.56270367 1.4661613e-038
0.068676122 -0.098507896 0.56055552 1.521479e-038
0.074784361 -0.095736764 0.56264716 1.4661974e-038
0.082498074 -0.091574386 0.5686 1.3926206e-038
-0.042208184 -0.084084235 0.5663659 1.2264526e-038
-0.03628831 -0.085836455 0.56241816 1.2909171e-038
0.085069053 -0.084816776 0.56580001 1.401768e-038
-0.043746825 -0.07523527 0.56494737 1.0880155e-038
-0.039143175 -0.077091418 0.56078565 1.1618076e-038
0.087850548 -0.075224236 0.56278944 1.2172324e-038
0.091695659 -0.073712192 0.56530428 1.2080489e-038
-0.045534831 -0.065159202 0.56506377 9.589772e-039
0.088094771 -0.065427989 0.56164515 1.0420254e-038
0.093527123 -0.064402565 0.5671581 9.2217112e-039
-0.046044152 -0.055769067 0.56639999 9.1287995e-039
0.088377766 -0.054807585 0.56211549 1.005147e-038
0.092225276 -0.05466301 0.56581247 9.8670806e-039
-0.045939475 -0.048044156 0.56855559 9.4965002e-039
0.08750204 -0.04505828 0.56303996 9.313904e-039
0.091664232 -0.045392837 0.56568956 9.0376786e-039
-0.043859586 -0.033741504 0.56262082 8.7600072e-039
0.086400576 -0.033482812 0.56378847 9.0373255e-039
0.090650864 -0.036807895 0.56833333 8.8525727e-039
-0.042614024 -0.024992226 0.56572551 8.8525685e-039
-0.038509496 -0.024035584 0.56126082 8.6670997e-039
0.085057952 -0.027222745 0.56332558 8.761096e-039
-0.040895455 -0.01752496 0.567909 9.0355235e-039
-0.035927065 -0.014389113 0.56387311 9.3121103e-039
0.078947589 -0.011313376 0.56075001 8.1146476e-039
0.082149766 -0.013846662 0.56448376 8.206846e-039
-0.033658549 -0.0056914212 0.56550002 9.6816117e-039
-0.029964913 -0.0068771928 0.56 9.589772e-039
0.075642072 -0.003359617 0.56492591 7.8373418e-039
0.082041956 -0.0089492695 0.56683332 7.7465867e-039
-0.031531122 0.004473513 0.56402779 1.0511377e-038
-0.028620511 0.0064658574 0.56030762 1.0512454e-038
0.068547934 0.0057755942 0.56217647 8.0220918e-039
0.072330795 0.00192193 0.56388885 8.2064831e-039
-0.031353064 0.014752852 0.5650624 1.0695038e-038
-0.026746899 0.016315728 0.56193018 9.773436e-039
0.049210526 0.019192105 0.56099999 7.5600206e-039
0.056207169 0.016767105 0.5620417 8.0206457e-039
0.063925155 0.01312498 0.56337506 7.9291717e-039
-0.031556495 0.021401931 0.56739992 9.2177385e-039
-0.023842741 0.022850519 0.56449032 9.0333388e-039
-0.015065238 0.02584511 0.56331432 9.0326144e-039
-0.0049982462 0.027671028 0.56189191 8.4790776e-039
0.0038648245 0.027880732 0.56023341 8.5734439e-039
0.0145731 0.029309941 0.56 9.4035717e-039
0.026806477 0.028393524 0.56030762 9.6812516e-039
0.035367005 0.026866795 0.56115395 9.3117488e-039
0.045278441 0.025426408 0.56361115 8.3894282e-039
0.052508373 0.022683101 0.56539994 8.0206457e-039
-0.011272456 0.030824387 0.56860006 9.3099299e-039
-0.0041461396 0.032280404 0.56686676 9.1251743e-039
0.0051395167 0.033942919 0.56492513 8.7567547e-039
0.014743691 0.034957092 0.56286973 8.6649277e-039
0.024733808 0.034896616 0.5619567 9.0347906e-039
0.034462132 0.034512248 0.56476843 9.8659988e-039
0.042158615 0.031553663 0.56776476 8.7585694e-039
0.017192485 0.04182383 0.56847835 9.402857e-039
0.025310485 0.044023413 0.56689161 9.3110229e-039
0.032757737 0.044181608 0.56700003 8.9426034e-039
0.031943858 0.050411403 0.56900001 9.2199021e-039
0.12527983 0.099325433 0.56900001 2.0287747e-038
0.13535218 0.098668277 0.56833333 2.0011524e-038
0.14075264 0.099325441 0.56900001 1.9274319e-038
0.058568642 0.10941249 0.56825 1.724673e-038
0.063236706 0.10909756 0.56830776 1.7706629e-038
0.077501968 0.10892609 0.56637496 1.7799905e-038
0.085981764 0.10758816 0.56560344 1.8075415e-038
0.094896473 0.1060265 0.56373817 1.8628949e-038
0.10507885 0.10371345 0.56537813 1.9458709e-038
0.11506099 0.10359544 0.56495607 2.0103717e-038
0.12466664 0.10349405 0.56557637 1.9366515e-038
0.13326074 0.10187763 0.56702858 1.899773e-038
0.14058626 0.10065643 0.56900001 1.5958177e-038
-0.16043422 0.11907895 0.56799996 7.3734391e-039
-0.15462278 0.11850964 0.56581479 8.1995943e-039
-0.14440668 0.11716679 0.5646562 1.1423894e-038
-0.13473079 0.11706173 0.56420517 1.1423169e-038
-0.12466035 0.11793106 0.56512737 1.0502665e-038
-0.11494414 0.11693507 0.56602347 8.5672894e-039
-0.10529489 0.11781032 0.565871 7.736807e-039
-0.098627195 0.11869957 0.565 7.0889125e-039
-0.070005268 0.11965439 0.56599998 1.2351639e-038
-0.065150931 0.1191024 0.56526667 1.2162906e-038
-0.057702128 0.11944222 0.565 1.1513917e-038
0.046343248 0.11510564 0.56303775 8.0239065e-039
0.055092111 0.11292357 0.56485718 1.7799185e-038
0.065146156 0.11262073 0.56476557 1.8628949e-038
0.074459262 0.11212894 0.56349123 1.8260165e-038
0.082697101 0.11044947 0.56192309 1.8168326e-038
-0.16079167 0.12146536 0.5675 7.4663438e-039
-0.15712111 0.1241656 0.56373477 6.3582166e-039
-0.12385965 0.12063158 0.56 1.1238061e-038
-0.11337905 0.12101569 0.56137502 9.949498e-039
-0.10883909 0.12093835 0.56142861 8.8431616e-039
-0.070564479 0.12125088 0.56649995 1.2349471e-038
-0.064817414 0.12116197 0.56202936 1.1976709e-038
-0.054857995 0.12205934 0.56196374 1.2159646e-038
-0.046821196 0.1219252 0.56596673 1.2067809e-038
-0.011268771 0.12584563 0.56840003 1.068558e-038
-0.0049033836 0.12617907 0.56414282 1.0685582e-038
0.0029506888 0.12726623 0.56078565 1.105365e-038
0.036442563 0.12638336 0.56441665 9.0275178e-039
0.042078454 0.12617426 0.56350005 8.2888864e-039
0.085273437 0.12631127 0.56326777 5.3401018e-039
0.095106013 0.12515132 0.56519449 5.3375865e-039
0.10456812 0.1250229 0.56440002 6.627947e-039
0.116492 0.12552662 0.56377769 8.473635e-039
0.12458216 0.12545708 0.56433332 9.4863394e-039
0.13476825 0.12592223 0.56556523 1.086963e-038
0.14454041 0.1259969 0.56520414 1.1700831e-038
0.15497997 0.12588225 0.56680334 1.1516447e-038
0.1641001 0.12778339 0.56534147 1.1701564e-038
-0.15880834 0.13275044 0.56050003 1.8370602e-040
0.16751637 0.13283864 0.56404346 1.0227884e-038
0.17231122 0.13454586 0.56834394 8.4776203e-039
-0.04336565 -0.0927919 0.57452011 1.3647099e-038
-0.03916667 -0.095166661 0.56999999 1.4753446e-038
0.083276309 -0.091711648 0.57042855 1.401768e-038
-0.050281573 -0.081771053 0.579 1.16188e-038
-0.046451192 -0.085252307 0.57332259 1.2079777e-038
0.085099503 -0.088677451 0.57114285 1.4293906e-038
-0.051975373 -0.074008919 0.57669562 1.0789394e-038
-0.048661429 -0.074949406 0.57144445 1.0881233e-038
0.096168414 -0.070623688 0.57099998 1.0883022e-038
-0.05210457 -0.064621873 0.57553333 9.7745248e-039
-0.049035721 -0.065678902 0.57105559 9.9585573e-039
0.096604712 -0.068266526 0.57061547 1.0235492e-038
-0.052309562 -0.05524762 0.57629412 9.3131921e-039
-0.048703007 -0.05388692 0.57134783 8.9447684e-039
0.095818892 -0.056615826 0.57343483 9.6834068e-039
-0.051787637 -0.044978708 0.57672727 8.7600058e-039
-0.048065614 -0.044642765 0.57182056 9.2202706e-039
0.097023308 -0.042718496 0.57858336 8.7603743e-039
0.10005526 -0.045710526 0.579 8.5770634e-039
-0.051936388 -0.034857508 0.57660002 9.0355277e-039
-0.048155814 -0.035112079 0.57182485 8.9440411e-039
0.093767196 -0.035231784 0.57450002 8.4841489e-039
-0.051308263 -0.026516575 0.57731569 9.4972247e-039
-0.047626458 -0.025000919 0.57359999 9.3131935e-039
0.08810468 -0.023467643 0.57466668 8.4841517e-039
0.09059912 -0.024294738 0.57700002 8.3004822e-039
-0.04450671 -0.015291107 0.57579309 9.3131935e-039
-0.039301973 -0.011765131 0.57075 9.4050276e-039
-0.042011984 -0.0067782374 0.57766676 9.6812572e-039
-0.038098771 -0.0041320054 0.57205397 9.77345e-039
0.079098091 -0.0025073367 0.57236362 7.9295402e-039
0.082686871 -0.0046345107 0.57265717 7.9299032e-039
-0.040469952 0.0027907896 0.57850003 1.0142591e-038
-0.036606085 0.0052707172 0.57443637 1.0511375e-038
0.076307356 0.0060582389 0.57692164 8.4830727e-039
0.081028387 0.0063084587 0.57835716 8.4837902e-039
-0.040310912 0.014038596 0.57844448 1.0512449e-038
-0.036324367 0.015105077 0.57435095 1.0418812e-038
0.066142842 0.016856223 0.57559377 8.2972353e-039
0.074525177 0.012598574 0.57792509 8.4834273e-039
-0.035310525 0.020679826 0.57499999 9.5865238e-039
-0.025252527 0.027097005 0.57441169 9.587593e-039
-0.018555848 0.029586256 0.57166666 9.8634512e-039
0.049194075 0.029114693 0.57225001 8.5738236e-039
0.054606818 0.025576066 0.57366669 8.29795e-039
0.061759997 0.021636317 0.579 8.2975899e-039
-0.022232955 0.032079574 0.57785714 9.9560224e-039
-0.014787847 0.0343091 0.575194 9.7716297e-039
-0.0057113878 0.037251223 0.57254541 9.6790782e-039
0.0037259262 0.038949806 0.57088888 9.2180972e-039
0.039327718 0.038327716 0.5704 1.0234798e-038
0.044619739 0.03556484 0.57320338 9.3128278e-039
-0.011164035 0.042119734 0.57850003 1.0049303e-038
-0.00444218 0.044246752 0.57673234 9.7719983e-039
0.0050829872 0.044898126 0.57429683 9.5872455e-039
0.014372648 0.046060842 0.57175314 9.5879658e-039
0.022815015 0.048663311 0.57052946 9.5883245e-039
0.037767917 0.04580472 0.57290471 9.8667191e-039
0.042058766 0.04408494 0.57708341 1.0603931e-038
-0.0015235381 0.050775003 0.57883334 1.0048945e-038
0.0061800568 0.053181995 0.57796472 1.0049305e-038
0.015193634 0.054999672 0.57564062 1.0140781e-038
0.025257472 0.055049431 0.57292652 9.8645554e-039
0.03489317 0.055108428 0.57358319 9.4968561e-039
0.040473998 0.054043218 0.5787273 1.04199e-038
0.017233418 0.063720256 0.57821566 1.0325892e-038
0.02515571 0.064986624 0.57662094 1.0233337e-038
0.03432212 0.064052053 0.57709515 1.0049308e-038
0.019807896 0.070597365 0.579 1.0602122e-038
0.025017578 0.071610071 0.57867873 1.0233698e-038
0.030981578 0.070597365 0.579 1.0786513e-038
0.14525789 0.089897372 0.579 1.7155265e-038
0.098473005 0.09862712 0.57615381 1.7431123e-038
0.10517289 0.09748067 0.57410771 1.8444916e-038
0.11523972 0.09629108 0.57480204 1.9827848e-038
0.12476639 0.095950983 0.57448035 2.0195911e-038
0.13523714 0.09538652 0.57467163 2.0104077e-038
0.14493957 0.094822496 0.57527953 1.8353082e-038
0.15359475 0.096968055 0.57659566 1.6693198e-038
0.026387719 0.10859518 0.57850003 4.1480705e-039
0.047357615 0.10868837 0.57463163 1.6620591e-039
0.055531591 0.10677633 0.57505333 1.5679402e-038
0.06509351 0.10505982 0.57419568 1.706162e-038
0.074771486 0.10649646 0.57479411 1.8076134e-038
0.084495559 0.10445989 0.57396215 1.7522601e-038
0.094800465 0.10168994 0.57330436 1.7799185e-038
0.10173527 0.10073526 0.57020003 1.8260165e-038
0.14668971 0.10106759 0.57359993 9.1352931e-039
0.15444769 0.10171895 0.57669228 5.9919733e-039
-0.16070595 0.11682913 0.57359999 7.4642054e-039
-0.15474796 0.11525957 0.57459086 1.013317e-038
-0.14574547 0.1145789 0.57455349 1.1700122e-038
-0.13475434 0.11471269 0.57304347 1.114767e-038
-0.12568414 0.1142148 0.57427263 8.8442364e-039
-0.11484252 0.11383159 0.57323074 8.1988726e-039
-0.10645105 0.11393164 0.57516128 7.3680273e-039
-0.064580172 0.11907852 0.57722735 1.1054381e-038
-0.054369301 0.11941618 0.57614285 1.1606833e-038
-0.044729389 0.11922862 0.57230002 1.1146567e-038
-0.039638594 0.11941754 0.57200003 1.1144759e-038
0.026977779 0.11077953 0.57666665 0
0.04696127 0.11131135 0.57134998 4.3371813e-039
0.052913252 0.11067174 0.57088894 1.7061979e-038
0.068999998 0.1105 0.56999999 1.8812617e-038
0.071000002 0.1105 0.56999999 1.8721143e-038
-0.064953655 0.1206057 0.57850003 1.1884509e-038
-0.05315144 0.12081555 0.57409084 1.1883064e-038
-0.043021712 0.12269521 0.57075 1.2067807e-038
-0.036906861 0.12383667 0.57188088 1.1975969e-038
-0.024821218 0.12242102 0.57548648 9.4874058e-039
-0.015516475 0.12415542 0.5756585 9.1179086e-039
-0.0094999997 0.1235 0.56999999 8.9342488e-039
0.026712442 0.12657242 0.57654554 8.3821526e-039
0.032818738 0.12630758 0.5740909 8.4736308e-039
0.097309209 0.12201127 0.57083338 7.1941388e-039
0.10764158 0.12235083 0.5765909 3.1281508e-039
0.11470905 0.1231062 0.57585931 5.5219679e-039
0.12500492 0.12323292 0.57430607 7.4580523e-039
0.13499743 0.12353622 0.57460529 8.2892479e-039
0.1449689 0.12353053 0.57471722 9.3948626e-039
0.15477778 0.12347882 0.57426667 1.0317538e-038
0.16613749 0.12512036 0.57468611 1.1516454e-038
0.17318006 0.12666512 0.57455552 1.1240951e-038
0.17282151 0.13651241 0.57216668 8.4776203e-039
-0.042519297 -0.1009193 0.58399999 1.2538939e-038
-0.035024121 -0.10430504 0.58074993 1.5582132e-038
-0.05263567 -0.092167728 0.58786666 1.0602471e-038
-0.045438189 -0.095016696 0.58154172 1.2909897e-038
-0.052021515 -0.086538374 0.58460867 1.1249291e-038
-0.049039766 -0.087899126 0.58033329 1.2264527e-038
-0.055971991 -0.072230279 0.58158827 1.0602839e-038
-0.056774303 -0.065644741 0.58282971 1.0234779e-038
-0.056096293 -0.054405618 0.58134377 9.5894119e-039
0.098350182 -0.052303195 0.58049995 9.4057409e-039
0.10085842 -0.053271528 0.58092296 8.945483e-039
-0.054847948 -0.045403335 0.5807333 8.6674556e-039
0.097491838 -0.04530549 0.58032256 8.7607344e-039
0.10042646 -0.045631725 0.58016664 8.7607358e-039
-0.060450003 -0.036166668 0.58899999 1.0505593e-038
-0.056247115 -0.036755137 0.58550006 9.3124607e-039
0.097896487 -0.034593482 0.58285701 8.3919547e-039
-0.054308586 -0.023677168 0.58678138 9.0355206e-039
-0.052655678 -0.015588836 0.58634132 9.4972177e-039
-0.048486382 -0.013521555 0.58123809 9.4057479e-039
-0.051169772 -0.0052082324 0.58923078 9.4972205e-039
-0.04609146 -0.0046952749 0.58270967 9.7738102e-039
-0.050173391 0.0015523391 0.5896666 9.6801712e-039
-0.045079838 0.0053678956 0.58567506 1.0050393e-038
-0.044250317 0.015045701 0.58498347 1.0234423e-038
-0.039242979 0.019876316 0.58099997 9.4957771e-039
0.068078071 0.019469079 0.58024997 8.3901498e-039
0.075368389 0.017055331 0.58446157 8.5752614e-039
0.080855787 0.014624035 0.58639997 8.7600156e-039
-0.042575542 0.022844667 0.58700001 1.005003e-038
-0.035188604 0.025760943 0.5837391 9.8641911e-039
-0.028622981 0.028215613 0.58059996 9.7730647e-039
0.057679262 0.02655006 0.58042854 8.4819825e-039
0.064775378 0.024524845 0.5819422 8.6660151e-039
0.072649032 0.02202359 0.58688897 8.574181e-039
-0.033103999 0.033930153 0.58759254 1.0325887e-038
-0.025746951 0.035693903 0.58355743 1.0141495e-038
-0.017289795 0.038196534 0.58057898 1.0141142e-038
0.049003072 0.037468508 0.58189994 9.4968645e-039
0.0542759 0.03415234 0.58424628 9.3124663e-039
0.060552634 0.030276315 0.58499998 9.4961331e-039
-0.030535087 0.041403506 0.58999997 1.0971979e-038
-0.024373446 0.044630211 0.58732444 1.0970544e-038
-0.015521183 0.045173571 0.58329082 1.0602119e-038
-0.0074254847 0.048270453 0.58052629 1.0417724e-038
0.046622466 0.045402091 0.58398134 1.0512095e-038
0.051516373 0.044335805 0.58856517 1.0327704e-038
-0.02184264 0.05393026 0.58894455 1.1248209e-038
-0.014921292 0.055037588 0.58634573 1.0879068e-038
-0.0052285334 0.055274058 0.58215415 1.0417726e-038
0.0034664373 0.057260133 0.5805952 1.0141137e-038
0.010684211 0.059526317 0.57999998 1.0325895e-038
0.045258325 0.055271175 0.5851506 1.1065268e-038
0.050116666 0.050116666 0.58899999 1.078976e-038
-0.14168772 0.069809213 0.58949995 7.9259389e-039
-0.13392939 0.069262549 0.58230007 1.5028595e-038
-0.12916668 0.069473684 0.58666664 7.743686e-039
-0.020696625 0.065194868 0.58985007 1.1340047e-038
-0.014968332 0.065023497 0.5882892 1.1063459e-038
-0.0052525657 0.065001138 0.58495694 1.078651e-038
0.0052147619 0.064973496 0.5817315 1.0509926e-038
0.0131645 0.06642919 0.58042848 1.0602122e-038
0.03713534 0.067890726 0.58066666 1.0233704e-038
0.044339385 0.064727046 0.58561879 1.1064909e-038
-0.14252332 0.074455515 0.58782488 7.3701895e-039
-0.13476346 0.075063378 0.58535874 9.6790782e-039
-0.12724663 0.073782004 0.58837497 8.1117609e-039
-0.020287717 0.075457886 0.59000003 1.1432606e-038
-0.014896522 0.07502272 0.58885568 1.1248213e-038
-0.0051381649 0.07497558 0.5854094 1.1155653e-038
0.0050097373 0.074930154 0.58394819 1.10631e-038
0.01536462 0.075196698 0.58151114 1.087907e-038
0.024852192 0.076497309 0.58067858 1.0418091e-038
0.03499103 0.075220846 0.58347785 1.0879429e-038
0.043871116 0.074903212 0.58792645 1.1156742e-038
0.14517489 0.07760606 0.58845001 1.6508088e-038
-0.13870175 0.081254385 0.58999997 6.2541408e-039
-0.11225943 0.083807014 0.58974999 9.9574868e-039
-0.02218076 0.086572416 0.589697 1.1893945e-038
-0.015064811 0.084821552 0.58888674 1.1709553e-038
-0.0050192587 0.085140087 0.5867238 1.1524803e-038
0.0051223934 0.08508648 0.58432966 1.1432244e-038
0.015200537 0.084883541 0.58194888 1.124785e-038
0.02513122 0.084951311 0.5826593 1.0879428e-038
0.034907028 0.085017726 0.58660883 1.1249296e-038
0.043110318 0.084309086 0.5893262 1.1249656e-038
0.10799298 0.089412294 0.58844447 1.7154176e-038
0.11425612 0.088656425 0.58844829 1.8814057e-038
0.12529206 0.089137338 0.58875006 2.0196269e-038
0.13665298 0.088149615 0.58700001 1.909065e-038
0.14412518 0.085050873 0.58352059 1.6049635e-038
0.15072632 0.087583326 0.58049995 1.6418061e-038
-0.052663643 0.099524274 0.58922225 1.4570137e-038
-0.044270035 0.09818396 0.58853114 1.355527e-038
-0.03453004 0.096768357 0.58865094 1.3186488e-038
-0.02459052 0.095066942 0.58737129 1.2540398e-038
-0.015033453 0.095259398 0.58693016 1.2171252e-038
-0.0052568512 0.095245145 0.58575451 1.2078337e-038
0.0051239817 0.095311753 0.58417964 1.1802469e-038
0.015337097 0.095099285 0.58286017 1.1432964e-038
0.025132027 0.095381908 0.58459991 1.1432606e-038
0.035136834 0.094935134 0.58760256 1.180247e-038
0.042624466 0.097031847 0.58923328 1.1987944e-038
0.059179243 0.099145912 0.58666664 1.162206e-038
0.065213181 0.096465163 0.58711255 1.43883e-038
0.073880248 0.098186657 0.58837938 1.7614797e-038
0.086251758 0.099140115 0.58754551 1.75226e-038
0.095427029 0.097088069 0.58512068 1.7246372e-038
0.10469892 0.092857562 0.58431357 1.7338569e-038
0.11461016 0.091227069 0.58208102 1.9551261e-038
0.12550792 0.091393597 0.58297288 2.0195911e-038
0.13452555 0.091619201 0.58197379 2.019699e-038
0.14302522 0.090091445 0.58024997 1.8077228e-038
0.1505965 0.090052634 0.57999998 1.8169061e-038
-0.1610636 0.10943948 0.58850002 1.0593424e-038
-0.15564041 0.10906404 0.5872106 1.1516099e-038
-0.13563751 0.10956886 0.58850002 8.474735e-039
-0.12275789 0.10986316 0.588 7.6435282e-039
-0.11914737 0.10986316 0.588 7.7357238e-039
-0.055225179 0.10278618 0.58831429 7.3723868e-039
-0.044971049 0.10332498 0.58471614 8.0188422e-039
-0.034639575 0.10300416 0.58373231 1.0325171e-038
-0.025218464 0.10384718 0.5828948 8.758568e-039
-0.015538292 0.10394138 0.5823977 1.0232613e-038
-0.0050936216 0.10499799 0.58208358 8.5745397e-039
0.005214971 0.1047753 0.58175313 9.4039346e-039
0.015293079 0.1050005 0.58109051 9.772357e-039
0.02488048 0.1049389 0.58244061 1.0879791e-038
0.034925994 0.10476929 0.58547956 1.1156382e-038
0.044765614 0.10512085 0.58749467 1.0788318e-038
0.054226052 0.10312847 0.58574003 1.2450373e-038
0.065671876 0.1007675 0.58083332 1.6232578e-038
0.07522127 0.10182248 0.58334041 1.7891744e-038
0.084277019 0.10150294 0.58284599 1.7522603e-038
0.091786459 0.10066692 0.5808571 1.7521878e-038
-0.16333365 0.11352844 0.5850572 7.6482366e-039
-0.15507278 0.11128537 0.58262157 1.1239144e-038
-0.14475949 0.11153586 0.58588004 1.1147308e-038
-0.13486353 0.11193357 0.58468628 9.3048474e-039
-0.1247225 0.11157975 0.5850789 7.7375259e-039
-0.11582194 0.11261967 0.58314627 8.0144785e-039
-0.10881281 0.11268053 0.58019996 7.7357336e-039
-0.070542984 0.11688334 0.58699995 6.2660378e-039
-0.064715348 0.11677647 0.58485109 9.6718167e-039
-0.055903979 0.1181132 0.58417493 1.1054747e-038
-0.048488207 0.11908782 0.58322221 1.0593055e-038
-0.035570879 0.11901738 0.58939993 5.4286975e-039
-0.02594737 0.1195614 0.57999998 7.1818228e-039
0.019054035 0.11096351 0.58079994 0
0.02259307 0.11123675 0.58009994 0
0.042222805 0.11070614 0.58700001 0
0.11688585 0.11909631 0.58504158 4.6097913e-039
0.12556615 0.11778054 0.58776361 4.5128901e-039
0.13458045 0.11878858 0.58738708 4.8751734e-039
0.14461133 0.11940558 0.58639282 6.2588043e-039
0.15483089 0.11971744 0.58855557 6.9985119e-039
0.16885205 0.11962515 0.58866668 7.920471e-039
0.17305741 0.11976641 0.58742857 9.4885072e-039
-0.050628949 0.12017982 0.583 1.1514278e-038
-0.044156391 0.12076616 0.5865714 9.6732404e-039
-0.035135664 0.12152767 0.58516282 8.9338817e-039
-0.023685325 0.12134545 0.58145452 7.36657e-039
-0.014462087 0.12375029 0.58700001 7.08963e-039
-0.0060720681 0.12438314 0.58773679 6.9059576e-039
0.0035709823 0.12392467 0.58835995 6.1676863e-039
0.026509916 0.12549201 0.5858261 7.090709e-039
0.033148497 0.12559706 0.58135486 7.5509668e-039
0.11772984 0.12061608 0.58100003 4.5096251e-039
0.12544888 0.12094025 0.58154172 5.6138034e-039
0.13551401 0.1214973 0.58225006 7.0892754e-039
0.14481835 0.12134314 0.58172005 7.5516843e-039
0.1556095 0.12198719 0.5843333 8.2885249e-039
0.16460223 0.12173944 0.5836786 9.2108343e-039
0.17465651 0.1223173 0.5845896 1.1425693e-038
-0.061432894 -0.035511844 0.59100002 1.0230086e-038
-0.056965914 -0.021705011 0.59114283 8.2053928e-039
-0.056507897 -0.019181579 0.59100002 8.6677961e-039
-0.051745497 -0.0047401171 0.59186667 9.4046633e-039
-0.052160773 0.0047813943 0.59369689 8.7582009e-039
-0.049249999 0.00985 0.59100002 9.1284211e-039
-0.050567765 0.011669079 0.59125006 8.7567631e-039
-0.049101882 0.013553008 0.59100002 9.5886916e-039
0.079586849 0.019246491 0.59299999 8.9429705e-039
0.080763161 0.019278947 0.59399998 9.0355249e-039
-0.045968641 0.026283115 0.59282118 1.0787594e-038
-0.039572809 0.029204385 0.59100002 1.0510279e-038
0.067386545 0.028901286 0.59613341 8.7592897e-039
0.074768439 0.025118485 0.59397501 8.758931e-039
0.080763161 0.020321053 0.59399998 8.9429705e-039
-0.043821082 0.034621261 0.59583342 1.0971986e-038
-0.037177954 0.036330312 0.59165776 1.0602838e-038
0.057629827 0.038047247 0.59185714 9.9578385e-039
0.063874178 0.034305267 0.59726089 9.4965002e-039
0.071400434 0.030974999 0.59850001 9.2202678e-039
-0.041304272 0.043860409 0.59799993 1.115566e-038
-0.03513509 0.045328934 0.59441984 1.1155659e-038
-0.028698318 0.047629017 0.59125 1.1063825e-038
0.056298308 0.045579094 0.59492719 1.0419894e-038
0.060858872 0.042302728 0.59866667 1.0143314e-038
-0.034128495 0.054552276 0.59617198 1.1432963e-038
-0.026712609 0.055622891 0.59225386 1.134005e-038
0.053410333 0.053228881 0.5960539 1.0973431e-038
-0.14496066 0.065560527 0.59540904 1.1615556e-038
-0.033441316 0.064814389 0.59720677 1.170955e-038
-0.025911277 0.065116346 0.59258085 1.1432604e-038
0.049089178 0.067126803 0.5932222 1.1342571e-038
0.051699951 0.066572346 0.59657896 1.1619525e-038
0.13970719 0.067601934 0.59740001 1.3834409e-038
0.14397615 0.065902032 0.59652323 1.6693915e-038
-0.1466544 0.071302451 0.59160006 4.1444593e-039
-0.13012369 0.079318419 0.59100002 8.9429705e-039
-0.12439663 0.077915043 0.59165609 8.2965165e-039
-0.11892212 0.077477135 0.59164292 7.7418938e-039
-0.03323967 0.075553238 0.59614801 1.1894304e-038
-0.025625123 0.074937873 0.59240675 1.15248e-038
0.048950206 0.075486839 0.59252936 1.1526247e-038
0.051874805 0.075409725 0.59515148 1.171064e-038
0.13901147 0.076103099 0.59646153 1.4942563e-038
0.14302869 0.073522493 0.59309077 1.5034754e-038
-0.12291529 0.084517963 0.59427083 1.0880888e-038
-0.11637903 0.085867405 0.59298068 1.0972726e-038
-0.050967544 0.089850001 0.59899998 1.2540405e-038
-0.043115579 0.087905832 0.59762073 1.2172336e-038
-0.034897856 0.0852964 0.59465569 1.2079418e-038
-0.026213959 0.084227361 0.59146231 1.1893947e-038
0.047507364 0.086031489 0.59195113 1.143405e-038
0.052814908 0.085009851 0.59633338 1.1711362e-038
0.066996172 0.089077003 0.59335715 9.7766982e-039
0.073626094 0.088164948 0.5967499 1.3651104e-038
0.098699562 0.089774996 0.59850001 1.6969425e-038
0.10602563 0.087570302 0.59516275 1.6785032e-038
0.11532713 0.085038841 0.59453577 1.8629307e-038
0.12459055 0.085333213 0.59396827 2.0012239e-038
0.13524552 0.084421501 0.59513748 1.8630389e-038
-0.12147456 0.098533623 0.59433335 1.2813383e-038
-0.11690604 0.094175078 0.59415209 1.2540426e-038
-0.072675563 0.098114803 0.59640908 1.4664862e-038
-0.064549595 0.096541271 0.59554696 1.49382e-038
-0.055019557 0.09498468 0.59449446 1.3832217e-038
-0.045317277 0.093421564 0.59380287 1.3094289e-038
-0.036107138 0.092394955 0.59174985 1.300138e-038
-0.028772369 0.090982899 0.59100002 1.226417e-038
0.04625776 0.094287068 0.59201741 1.1618799e-038
0.054559886 0.095482104 0.59579265 1.189539e-038
0.06410668 0.09310019 0.59345824 1.1067438e-038
0.075570516 0.093761437 0.59352177 1.7430764e-038
0.084584653 0.095819376 0.59506154 1.7983935e-038
0.094932772 0.093589403 0.5944528 1.724637e-038
0.1009981 0.091105707 0.59350002 1.6969057e-038
-0.16354859 0.10773116 0.59372419 9.213756e-039
-0.15456036 0.10789715 0.59491181 1.1331702e-038
-0.14518553 0.10809784 0.59324384 1.0133884e-038
-0.13536699 0.10852263 0.59505713 7.736084e-039
-0.12407368 0.10606446 0.5950579 6.9048898e-039
-0.11848039 0.10528766 0.59385198 8.4743875e-039
-0.071553506 0.10103271 0.59414285 1.3291326e-038
-0.064613417 0.10333572 0.59289461 5.070045e-039
-0.059025936 0.1010921 0.59100002 1.170844e-038
0.048470177 0.10057192 0.59160006 1.1987947e-038
0.053622417 0.10088373 0.59206247 1.1896112e-038
-0.16687107 0.11141992 0.59157145 5.8061611e-039
-0.1189193 0.11061053 0.59200001 7.7357238e-039
-0.071083769 0.11777939 0.59150004 8.2914774e-039
-0.067552008 0.11525501 0.59299999 8.659471e-039
-0.054930739 0.11671951 0.59739125 5.7081613e-039
-0.043968968 0.11850855 0.59566665 4.6936576e-039
-0.033789117 0.11832979 0.59522718 3.9571772e-039
-0.027829317 0.1182887 0.59626317 3.4972822e-039
-0.011424561 0.1194386 0.59200001 3.4990759e-039
-0.0083144736 0.11953904 0.59249997 3.4075991e-039
0.0041894736 0.11992368 0.597 2.4856568e-039
0.017019738 0.11966184 0.597 2.2069218e-039
0.027276317 0.11959913 0.59799999 1.1938615e-039
0.12372182 0.11671853 0.59137505 1.0237702e-038
0.13576514 0.1171559 0.59565377 3.9553863e-039
0.14518525 0.11797675 0.59643739 4.7833379e-039
0.15506259 0.11831862 0.59664106 5.5212505e-039
0.16434579 0.11886759 0.59488565 6.9974399e-039
0.17588915 0.11936542 0.59729409 8.4740077e-039
0.18085679 0.11908706 0.59675002 1.050518e-038
-0.050967544 0.12032544 0.59899998 7.2786889e-039
-0.045077194 0.12079546 0.59399998 8.5669054e-039
-0.03093794 0.12088881 0.59275001 6.2595232e-039
-0.025136676 0.1216223 0.59409529 5.7063564e-039
-0.015168111 0.12175724 0.59258819 4.8787607e-039
-0.0047260146 0.12214953 0.59509373 4.1415656e-039
0.0036502792 0.1219679 0.59422731 3.8657004e-039
0.016668903 0.12233583 0.59575003 3.8657004e-039
0.024836915 0.1223166 0.59339648 4.2337599e-039
0.031112827 0.12275714 0.59362495 4.8780433e-039
0.15364014 0.12071776 0.59575003 6.904524e-039
0.17603607 0.12048826 0.594625 9.5803525e-039
0.18073991 0.1206671 0.59549999 1.1334925e-038
-0.072310917 -0.02411798 0.60416675 8.3890554e-039
-0.067419276 -0.024626127 0.60450011 1.2356007e-038
0.10839957 -0.02173399 0.60799998 1.0420596e-038
0.11048421 -0.021565791 0.60699999 1.2080858e-038
-0.072721452 -0.014893454 0.60316694 9.3966913e-039
-0.066999659 -0.014589749 0.60372239 9.0358724e-039
0.10605961 -0.014548409 0.60410547 8.1146265e-039
0.11088462 -0.014263111 0.60194993 1.1711711e-038
-0.072725728 -0.0041814721 0.60580516 1.1055851e-038
-0.067566447 -0.005407691 0.60718596 9.4957645e-039
-0.057257663 -0.0047593308 0.60900015 9.7741703e-039
0.097229563 -0.0026704457 0.60876924 7.9295416e-039
0.10509491 -0.0046864045 0.60452276 7.5607423e-039
0.11135615 -0.0058132042 0.60284215 8.944404e-039
-0.073860511 0.0043207058 0.60824513 1.0871453e-038
-0.069106303 0.0030048795 0.60893762 8.942232e-039
0.099545248 0.0022126564 0.60871422 7.1926786e-039
0.10502318 0.0043114997 0.60667127 7.7447762e-039
-0.074789479 0.01015 0.60900003 1.2803216e-038
0.084280968 0.018646579 0.60049999 9.1280764e-039
0.10625087 0.010963548 0.60800004 7.9295304e-039
0.077496342 0.027902737 0.60147059 8.9433194e-039
0.082751557 0.02396062 0.60045946 8.9444068e-039
-0.047942311 0.03734386 0.6005882 1.0786495e-038
0.067538351 0.037250973 0.60307401 9.6823334e-039
0.074575096 0.03319104 0.60426092 9.4046619e-039
0.080962062 0.030956797 0.60324997 9.3124663e-039
-0.050666668 0.044799998 0.60799998 1.2898298e-038
-0.046017114 0.045295242 0.60289288 1.1890675e-038
0.064728528 0.044915199 0.60513467 1.0511735e-038
-0.15133484 0.058285717 0.60171425 1.6966899e-038
-0.14716728 0.058191638 0.60082346 1.8256552e-038
-0.043215733 0.054859228 0.60462761 1.1708825e-038
-0.038784519 0.056703925 0.60082358 1.1709195e-038
0.056635544 0.056559213 0.60197443 1.1157109e-038
0.062047333 0.054908246 0.60639286 1.0880515e-038
0.13925724 0.057623029 0.60824996 1.3098274e-038
0.14246455 0.056894228 0.60497791 1.669391e-038
-0.15000001 0.060526319 0.60000002 1.2727335e-038
-0.14603895 0.061008073 0.60059994 1.6690317e-038
-0.0421708 0.064832941 0.60406452 1.1893938e-038
-0.038397115 0.064971127 0.60078579 1.2077974e-038
0.055491176 0.06341809 0.60488111 1.1526615e-038
0.060167544 0.060167544 0.60699999 1.1066347e-038
0.13909389 0.065754756 0.60513049 1.401916e-038
0.14276248 0.06203362 0.60159093 1.6048183e-038
-0.043695543 0.075784333 0.60474581 1.1710641e-038
-0.038031209 0.074331976 0.60075015 1.1986861e-038
0.055185191 0.074388489 0.60337496 1.1895033e-038
0.11600201 0.07901103 0.60742855 1.8168326e-038
0.12436299 0.078975059 0.60781246 1.9274673e-038
0.13642949 0.076256476 0.60451066 1.6233304e-038
-0.064010493 0.088723533 0.60775 1.2909546e-038
-0.054174606 0.087262146 0.60543996 1.2171615e-038
-0.045710113 0.083948895 0.60204566 1.2171615e-038
-0.039473683 0.081052631 0.60000002 1.2077619e-038
0.05778854 0.084983274 0.60321057 1.1434415e-038
0.061732035 0.086480081 0.60595238 1.1342216e-038
0.077764034 0.085675724 0.60366672 1.5309905e-038
0.083803974 0.087771788 0.60623538 1.7891021e-038
0.096211672 0.088656075 0.60600001 1.7614435e-038
0.10455821 0.084456921 0.60437101 1.6692478e-038
0.11415683 0.08136858 0.60289192 1.7615873e-038
0.12511858 0.081287861 0.60354549 1.9643454e-038
0.13183054 0.081196107 0.60206252 1.8814059e-038
-0.074439652 0.09436179 0.60405904 1.4201367e-038
-0.06589736 0.092119291 0.60247374 1.438575e-038
-0.056263547 0.090216964 0.6006667 1.3186489e-038
0.058562752 0.091955744 0.60061532 1.134186e-038
0.062305212 0.092034161 0.60256255 1.1249663e-038
0.079473689 0.090000004 0.60000002 1.7614798e-038
0.08562123 0.091552027 0.60186207 1.8167966e-038
0.092880897 0.091395095 0.6013183 1.7798825e-038
-0.17007369 0.10596491 0.60399997 1.3869366e-039
-0.16500439 0.10592342 0.60261542 8.8456966e-039
-0.15503618 0.10577679 0.60451508 1.0318279e-038
-0.14495885 0.10582121 0.60487497 7.9201207e-039
-0.13507536 0.10570916 0.6044001 6.9974399e-039
-0.12859684 0.10585365 0.60176921 6.7204943e-039
-0.07631579 0.10052631 0.60000002 2.010226e-038
0.18376841 0.10915703 0.60900003 7.4699886e-039
-0.07132224 0.11320087 0.60123527 5.345522e-039
-0.065114021 0.11416736 0.60431749 4.1430174e-039
-0.054765768 0.11536251 0.60311633 4.8809215e-039
-0.045382001 0.11665037 0.60440004 3.7742237e-039
-0.037274528 0.11739934 0.60210717 3.0370286e-039
-0.023731576 0.11755987 0.60387504 2.0239682e-039
-0.017042143 0.11858037 0.60554171 1.7477443e-039
-0.0021992754 0.11750469 0.60639131 2.7550649e-040
0.0015973136 0.11795993 0.6064375 1.8402972e-040
0.024643773 0.11890149 0.60029995 5.5101298e-040
0.030049998 0.11914562 0.60100001 5.5101298e-040
0.13627785 0.11504636 0.60031587 5.3459046e-039
0.14486262 0.11513742 0.60392505 4.0493826e-039
0.15487505 0.11576388 0.60262072 4.3248779e-039
0.16534525 0.11602972 0.60334152 4.6932961e-039
0.17518504 0.11707728 0.60364705 6.1676905e-039
0.18242346 0.11386317 0.60705256 5.8940029e-039
-0.052105263 0.12052631 0.60000002 7.9240584e-039
-0.04846184 0.12062676 0.60049999 5.7124576e-039
-0.022976439 0.12135714 0.60114288 4.4163547e-039
-0.014890585 0.12075794 0.60540003 2.8533576e-039
-0.0026429826 0.12099347 0.60233331 2.6686104e-039
0.0036225435 0.12064377 0.60589999 1.7477443e-039
0.019473685 0.12052631 0.60000002 2.0207396e-039
0.020526316 0.12052631 0.60000002 1.6530389e-039
-0.070964329 -0.031283043 0.61133337 9.2188189e-039
-0.06710723 -0.03257649 0.61439997 1.1799583e-038
-0.072355263 -0.029478069 0.611 9.2184518e-039
-0.064000189 -0.024082068 0.61488897 1.0972339e-038
0.10562205 -0.022810608 0.61152375 8.9443998e-039
-0.062727757 -0.015338518 0.6127826 8.1139147e-039
-0.058505256 -0.013951074 0.61229634 1.0142595e-038
0.09924978 -0.01102829 0.61324996 8.5759956e-039
0.10184667 -0.013773569 0.61173338 8.57489e-039
-0.062916361 -0.0042485436 0.61014915 8.3908645e-039
-0.057173189 -0.0048641879 0.61013037 9.9585573e-039
0.096433677 -0.0041773426 0.61148793 8.5756271e-039
0.10043747 -0.0074209278 0.61042863 7.9288017e-039
-0.070631579 0.0085614035 0.61000001 9.6768936e-039
-0.064374469 0.0051881284 0.61167133 8.9425879e-039
-0.057822712 0.0052033663 0.61329734 8.7574722e-039
0.095480643 0.0049442733 0.61221415 8.206839e-039
0.10124763 0.008036579 0.61070001 7.652582e-039
-0.071544737 0.013959162 0.61396301 1.2713917e-038
-0.066725679 0.012202659 0.61606067 8.849665e-039
-0.054194003 0.015469885 0.6188333 9.3106446e-039
-0.049331576 0.018973684 0.61799997 1.0603204e-038
0.096601903 0.012448984 0.61542112 7.9291577e-039
0.10282481 0.014165517 0.61388892 7.5600192e-039
-0.053744957 0.020900767 0.61887503 1.0508826e-038
-0.049331576 0.020057896 0.61799997 1.0603201e-038
0.073471271 0.038141008 0.61025006 1.0051108e-038
-0.049844738 0.049308773 0.611 1.2806105e-038
0.068406433 0.047867399 0.61083335 1.097343e-038
0.072060965 0.044279628 0.6129033 1.0604287e-038
0.13960616 0.048942979 0.61766666 1.2635859e-038
0.14108972 0.047493231 0.61828572 1.3649299e-038
-0.050729979 0.053861722 0.61345446 1.2898662e-038
-0.048096526 0.054731146 0.61168176 1.2255819e-038
0.06688875 0.054734249 0.6131621 1.1065269e-038
0.071181893 0.05254649 0.61518186 1.1249663e-038
0.13826787 0.055399545 0.61192584 1.3374863e-038
0.14089873 0.051593482 0.61542851 1.1993725e-038
0.058703266 0.067682534 0.61190909 1.1435131e-038
0.064882912 0.064944066 0.61623859 1.0881238e-038
0.13712025 0.06527397 0.61499995 1.4573054e-038
0.14034474 0.063450873 0.61299998 1.3651454e-038
-0.077917986 0.079546928 0.61900002 1.3280139e-038
-0.051396143 0.079079293 0.61160004 1.4109178e-038
-0.049351126 0.077508025 0.61057144 1.4385408e-038
0.057918292 0.075038858 0.61304986 1.1619526e-038
0.062841289 0.074780934 0.61739999 1.106599e-038
0.079989471 0.079989471 0.61199999 4.712407e-039
0.083301313 0.077642031 0.61583328 1.088123e-038
0.1084438 0.07863754 0.6146428 1.660028e-038
0.11455534 0.076919995 0.61324406 1.7062339e-038
0.12554932 0.075994521 0.6159811 1.8813696e-038
0.13413671 0.074318275 0.61383873 1.6878672e-038
-0.077646494 0.080904387 0.61900002 1.3095022e-038
-0.061585527 0.08568377 0.61050004 1.1986874e-038
-0.055182453 0.083757371 0.61251861 1.3186496e-038
-0.049844738 0.080930702 0.611 1.392478e-038
0.064479977 0.084068984 0.61696661 1.0881601e-038
0.079414912 0.081555851 0.61033338 9.1327918e-039
0.085869245 0.083729073 0.61275011 1.7614074e-038
0.094678655 0.08578115 0.61441076 1.8351997e-038
0.10398791 0.082386456 0.61566669 1.7338562e-038
-0.16543303 0.099258766 0.61833334 9.7661927e-039
-0.15992105 0.099205263 0.61799997 9.950193e-039
0.067872807 0.090678073 0.61900002 1.1249659e-038
-0.17143464 0.10285863 0.6171667 1.6584437e-039
-0.16526194 0.10295178 0.6154834 1.0595236e-038
-0.15516855 0.10283956 0.61385423 9.1197331e-039
-0.14460818 0.10301661 0.61253333 6.9977987e-039
-0.13687898 0.10276424 0.61368185 6.6283001e-039
-0.066463158 0.10969123 0.616 2.7550649e-040
-0.057013158 0.10913947 0.61900002 1.8367099e-040
-0.064362407 0.11163383 0.61142862 2.6679013e-039
-0.054894887 0.11289966 0.61582857 2.4842247e-039
-0.044474665 0.11405785 0.61391997 1.8385036e-039
-0.035213865 0.11537196 0.61517024 7.350427e-040
-0.025703536 0.11599527 0.61506462 2.7550649e-040
-0.014275548 0.11732373 0.61512506 1.8367099e-040
-0.0077466867 0.11815643 0.61633331 9.1835496e-041
0.0057714912 0.11778046 0.61549991 0
0.015051862 0.11832143 0.6135456 0
0.025363106 0.11879684 0.61347055 0
0.034816496 0.11824596 0.61586118 0
0.04339179 0.11800943 0.61412895 0
0.1465468 0.11241012 0.611 8.3008745e-039
0.15506215 0.11304657 0.61480689 4.1448307e-039
0.16471486 0.11311845 0.615915 3.8664221e-039
0.1753546 0.11345747 0.61603445 4.6947422e-039
0.18023026 0.11210833 0.61149997 5.3440731e-039
0.0059438595 0.12049825 0.616 0
0.015884398 0.1209146 0.61264282 5.5101298e-040
0.024388248 0.12039807 0.61220002 9.1835496e-041
0.036445033 0.12028655 0.61400002 9.1835496e-041
0.042935532 0.12075657 0.61183333 6.4284847e-040
-0.0701579 0.019035088 0.62 1.3447866e-038
-0.064092636 0.016040757 0.62257409 8.7567393e-039
-0.056644764 0.015104058 0.62137514 8.4812426e-039
0.095321514 0.016761428 0.625139 8.2964941e-039
0.1007186 0.01866 0.62200004 6.4522143e-039
-0.070701756 0.020122807 0.62 1.2987978e-038
-0.065407194 0.020639239 0.62246668 1.1423536e-038
-0.055835176 0.025599863 0.62046558 7.5574857e-039
0.098837443 0.022679647 0.62853336 7.0983124e-039
0.1015503 0.022117984 0.62578571 7.6529337e-039
-0.05487309 0.032304104 0.62194735 6.0841773e-039
0.13850705 0.047536243 0.62381256 1.4018796e-038
0.14113933 0.045164183 0.62283343 1.2638018e-038
0.068526313 0.058736842 0.62 1.0973431e-038
0.073362231 0.058412511 0.62626666 1.097379e-038
0.13701065 0.055083103 0.62517023 1.42961e-038
0.06689474 0.069070175 0.62 1.0789037e-038
0.07350044 0.060850143 0.62683338 1.1064902e-038
0.13369842 0.065324806 0.62519997 1.5495013e-038
-0.081035085 0.079403505 0.62 1.512442e-038
-0.079947367 0.079403505 0.62 1.447977e-038
0.066606142 0.074422769 0.62126082 1.0512451e-038
0.087954231 0.074638024 0.62493098 1.3369808e-038
0.093388744 0.077250205 0.62740004 1.7891018e-038
0.10530614 0.078721315 0.62682611 1.7614432e-038
0.11740252 0.073777676 0.62511104 1.7153096e-038
