# .PCD v0.7 - Point Cloud Data file format
VERSION 0.7
FIELDS x y z rgb
SIZE 4 4 4 4
TYPE F F F F
COUNT 1 1 1 1
WIDTH 963
HEIGHT 1
VIEWPOINT 0 0 0 1 0 0 0
POINTS 963
DATA ascii
-0.024822155 0.1481345 0.47393039 1.3360738e-038
-0.015270293 0.14875115 0.47640386 1.2899751e-038
-0.0050894064 0.14878963 0.47750002 1.271536e-038
0.0052181613 0.14895211 0.47784087 1.2899391e-038
0.015031222 0.14886437 0.47689795 1.3360725e-038
0.022021113 0.14884655 0.47492853 1.3268895e-038
0.035274852 0.14947973 0.47688892 1.2807909e-038
0.051261403 0.14916228 0.479 1.2809702e-038
-0.063915536 0.15362249 0.47713766 5.8921826e-039
-0.055008475 0.15622506 0.47425216 5.2471817e-039
-0.044061549 0.15606029 0.47120735 6.1684093e-039
-0.03614971 0.15450932 0.47031191 6.3535181e-039
-0.025142433 0.15258434 0.47027907 9.0261039e-039
-0.013738377 0.15101239 0.47312498 1.3454024e-038
-0.0057634506 0.15085198 0.47619995 1.2900111e-038
0.0056449659 0.15108812 0.47469059 1.345293e-038
0.015578592 0.15192001 0.47368771 1.3453659e-038
0.023905268 0.1527067 0.47473079 1.2439499e-038
0.035553459 0.15396994 0.47394776 1.1056197e-038
0.045022383 0.15546919 0.47473502 9.6732712e-039
0.054746937 0.15565364 0.47693393 9.3052117e-039
0.061828468 0.15714994 0.47864521 8.1073874e-039
-0.060877897 0.16175649 0.47600001 4.2362766e-039
-0.05407672 0.1616752 0.47326669 4.9720368e-039
-0.044715542 0.16328217 0.471643 4.7890874e-039
-0.03724267 0.16340061 0.46999973 5.1571469e-039
-0.025973683 0.16532457 0.47 4.5132292e-039
0.027571272 0.16212939 0.46999991 6.5382681e-039
0.035444167 0.16420422 0.47115469 6.5389911e-039
0.044812914 0.16483173 0.47332183 6.53971e-039
0.055140659 0.16505201 0.47624099 6.7233796e-039
0.06363415 0.16515836 0.47822595 6.5400729e-039
-0.0008245614 0.1710965 0.47 4.3295414e-039
0.024736842 0.17192104 0.47 3.6863819e-039
0.03661909 0.17168133 0.47287995 4.5139593e-039
0.044856116 0.17106318 0.47305411 3.7771257e-039
0.055822846 0.17165746 0.47681826 3.6852902e-039
0.062704392 0.17160486 0.47846672 2.765513e-039
-0.080642104 0.1394079 0.48899999 1.3177774e-038
-0.076781586 0.1394079 0.48899999 1.2163628e-038
-0.065153688 0.13963579 0.48800001 6.9981686e-039
-0.090722367 0.14905922 0.48899999 4.235206e-039
-0.084342524 0.14620513 0.48742306 6.3535167e-039
-0.074616998 0.14463045 0.48443538 9.2115658e-039
-0.066442825 0.14346263 0.48286217 8.9353474e-039
-0.05936842 0.14189473 0.47999999 6.3535293e-039
-0.042900421 0.14369163 0.48500004 7.8293544e-039
-0.034931056 0.14440845 0.48556682 1.1055827e-038
-0.025332173 0.14498672 0.48369128 1.2714991e-038
-0.015101432 0.14581591 0.48369467 1.2530241e-038
-0.0048733684 0.14553472 0.48346722 1.262244e-038
0.005423815 0.14663187 0.48398641 1.2991581e-038
0.014686998 0.14675893 0.48373526 1.3268887e-038
0.025009288 0.147774 0.48454326 1.3361085e-038
0.034816604 0.14790423 0.4852179 1.2808993e-038
0.044420581 0.14832705 0.48466671 1.2624595e-038
0.055674035 0.14900829 0.4842858 1.2624238e-038
0.065018676 0.14921956 0.4869211 1.2808633e-038
0.071510233 0.14940146 0.48433331 1.3545838e-038
-0.091022626 0.15399212 0.48899999 5.1557078e-039
-0.084748119 0.15470624 0.48609325 4.8798397e-039
-0.075923011 0.15405457 0.48189229 5.0638667e-039
-0.069473684 0.1511579 0.47999999 6.260598e-039
0.026740035 0.15057613 0.48064283 1.2992666e-038
0.036170725 0.15060142 0.48362499 1.2992301e-038
0.044573076 0.15092848 0.48074985 1.29923e-038
0.0561096 0.15114424 0.48157141 1.3085224e-038
0.065938383 0.15401211 0.48158103 1.0688862e-038
0.075037792 0.15491763 0.48435602 9.5825273e-039
0.083183937 0.15609263 0.48818853 8.4769028e-039
-0.081940353 0.16005965 0.484 2.9473833e-039
-0.077796496 0.16024387 0.48199999 3.3168679e-039
0.068344131 0.16423395 0.48010239 6.7248257e-039
0.075282559 0.16470025 0.48391175 6.6329888e-039
0.083714917 0.16477373 0.48732591 6.6333518e-039
0.063410535 0.17271578 0.47999996 2.9499309e-039
0.078093514 0.17074159 0.48540002 3.9618954e-039
0.082032777 0.17126848 0.48707142 3.0431845e-039
-0.10248774 0.1383125 0.49858329 8.3796429e-039
-0.094838247 0.13780767 0.49682611 1.1607925e-038
-0.084866382 0.13816085 0.49491429 1.2623524e-038
-0.074310482 0.13842015 0.49487674 9.0275501e-039
-0.06850861 0.13887849 0.49523538 6.998163e-039
-0.040774561 0.13967413 0.49449998 7.0976174e-039
-0.036228172 0.13935928 0.49687496 4.8802265e-039
-0.016195614 0.13963246 0.49900004 8.3821751e-039
-0.10391413 0.14513479 0.49765271 5.8003443e-039
-0.094924361 0.14452477 0.49269778 6.4446319e-039
-0.086624473 0.14207876 0.4910697 9.670732e-039
-0.069907896 0.14025 0.495 7.4580776e-039
-0.042087547 0.14131239 0.49160004 5.5266805e-039
-0.034307316 0.14117484 0.49276596 7.2747457e-039
-0.025144266 0.14255993 0.49560755 9.5803371e-039
-0.014901483 0.14226274 0.49487206 1.07778e-038
-0.0053297426 0.14300874 0.49483994 1.225365e-038
0.0047520953 0.14351718 0.49343014 1.2623154e-038
0.01519375 0.14439633 0.49350682 1.2346203e-038
0.025067607 0.14442623 0.49470344 1.2254726e-038
0.034371559 0.1451222 0.49392307 1.1794477e-038
0.045750272 0.14597763 0.49433738 1.087108e-038
0.055144496 0.14695986 0.49450514 1.1608649e-038
0.064639419 0.14662836 0.49512634 1.234621e-038
0.07444445 0.1475666 0.49439514 1.2808277e-038
0.084476665 0.14784569 0.49513233 1.3085221e-038
0.094354711 0.14858699 0.49740016 1.2993746e-038
0.10023772 0.14882456 0.49900001 1.2901909e-038
-0.10374113 0.15395017 0.49636453 3.4994486e-039
-0.095625289 0.15459605 0.49171263 4.327403e-039
0.052112807 0.1503149 0.49100003 1.2346205e-038
0.075644545 0.15070243 0.49150002 1.3545842e-038
0.086486615 0.15309328 0.49152061 1.0596676e-038
0.094848998 0.15499033 0.49431553 8.4765399e-039
0.10200275 0.15519811 0.49803698 8.1077602e-039
0.088578582 0.1641864 0.49031574 7.0014126e-039
0.094744898 0.16422258 0.493036 6.5418778e-039
0.10343242 0.16474026 0.49785247 6.0812724e-039
-0.0013394738 -0.070099123 0.509 1.4475782e-038
0.0022324563 -0.070545614 0.509 1.4292827e-038
0.011162281 -0.070099123 0.509 1.5030388e-038
-0.01056696 -0.061318129 0.509 1.2447469e-038
-0.0045026829 -0.064143665 0.50767946 1.327759e-038
0.0048505478 -0.065011963 0.50691068 1.3923318e-038
0.014145566 -0.064188324 0.50736761 1.4384658e-038
0.022303319 -0.062167045 0.50767577 1.4384299e-038
-0.011568812 -0.054955877 0.50858146 1.1433313e-038
-0.0048274365 -0.054736815 0.50651228 1.1617347e-038
0.0048336978 -0.054925594 0.5046187 1.1986853e-038
0.015032018 -0.055075843 0.50494766 1.2263437e-038
0.024553208 -0.054417107 0.50708568 1.2724778e-038
0.033068422 -0.050906759 0.50842851 1.3001359e-038
-0.011949831 -0.044795819 0.50811535 1.0233702e-038
-0.0048904163 -0.044869572 0.50646299 1.0326254e-038
0.0049072006 -0.044771984 0.50486922 1.0235134e-038
0.01487204 -0.0449926 0.50472289 1.0419168e-038
0.025235327 -0.044858441 0.50642288 1.0880147e-038
0.033318311 -0.045696028 0.50779396 1.1526239e-038
-0.011427412 -0.038294628 0.50837493 9.3117418e-039
-0.0047560432 -0.035308003 0.50768358 9.1280708e-039
0.0048885806 -0.035110928 0.50670248 9.1280722e-039
0.014664432 -0.0351016 0.50656211 9.2209853e-039
0.024927793 -0.035162207 0.50743943 9.3131837e-039
0.03232256 -0.037447996 0.50821424 9.6816075e-039
-0.0025563003 -0.028757578 0.50863636 8.2057614e-039
0.0051245075 -0.026321398 0.50810397 8.206476e-039
0.014575351 -0.027825113 0.50809997 8.759647e-039
0.023925964 -0.028213909 0.50848955 8.8522042e-039
-0.11333504 0.13677701 0.50613111 7.9193864e-039
-0.10521218 0.13541527 0.50418693 1.1239147e-038
-0.095108747 0.13431486 0.50461334 1.28072e-038
-0.085126273 0.13560952 0.50463885 1.1240234e-038
-0.076975152 0.13604869 0.50141943 8.105591e-039
-0.03263035 0.13846679 0.50273341 4.0490197e-039
-0.025165753 0.13864379 0.50441176 5.9829405e-039
-0.015170285 0.1389533 0.50449997 7.7368014e-039
-0.0045360699 0.13935488 0.50703996 8.1052252e-039
0.0031079822 0.13950887 0.50650001 7.1811249e-039
0.013581141 0.13958202 0.50516671 7.2729464e-039
0.037951756 0.13975176 0.509 8.5669236e-039
0.049463157 0.13947719 0.50800002 1.123986e-038
0.051544957 0.13945988 0.50875002 1.1700472e-038
-0.12061641 0.14613019 0.509 5.0638667e-039
-0.11494532 0.14499439 0.5046432 5.6159558e-039
-0.10893398 0.14411967 0.50141674 6.0765696e-039
-0.030323684 0.14019211 0.50099999 6.9034464e-039
-0.024275284 0.1405019 0.50099993 7.9211829e-039
-0.010900986 0.14061546 0.50212497 9.0264416e-039
-0.0045977612 0.14086099 0.50323683 1.0225704e-038
0.0051977234 0.14097081 0.50353187 8.381082e-039
0.015196758 0.14184999 0.50329 8.473635e-039
0.025838532 0.14159307 0.5050416 8.6580319e-039
0.037468497 0.14293478 0.50382221 9.6729125e-039
0.044458069 0.14296542 0.50436515 9.5807112e-039
0.054593988 0.14331889 0.50604928 1.1331694e-038
0.06493403 0.14324757 0.5033018 1.2715353e-038
0.075342633 0.14464635 0.50451392 1.2715716e-038
0.085142218 0.14500317 0.50405484 1.271608e-038
0.094699576 0.14570919 0.50379735 1.2993029e-038
0.10463366 0.14734161 0.50380564 1.2716803e-038
0.11288689 0.14838018 0.50755173 1.0872906e-038
-0.12099912 0.15180703 0.509 1.4722574e-039
-0.11398232 0.15178111 0.50297552 2.8544422e-039
-0.10914762 0.15240452 0.50028569 3.4998046e-039
0.10692661 0.15481728 0.50218177 7.7396951e-039
0.11360729 0.15505475 0.50588322 7.4631096e-039
0.10800026 0.1626718 0.50150001 6.4500437e-039
0.11318091 0.16304824 0.50464439 6.2660126e-039
-0.012317543 -0.081712022 0.5181905 1.4476495e-038
-0.0051221107 -0.082625158 0.5173015 1.5122586e-038
0.0045915013 -0.08250761 0.51749182 1.5584286e-038
0.013046009 -0.081222937 0.51815003 1.586087e-038
-0.023706719 -0.073067784 0.5177964 1.401588e-038
-0.014856887 -0.075017557 0.51564807 1.4292467e-038
-0.0050090137 -0.074901238 0.51293594 1.4661251e-038
0.0052044732 -0.074989788 0.51240003 1.5214422e-038
0.014988361 -0.074993573 0.5141682 1.5583563e-038
0.024330815 -0.074307293 0.51603484 1.5767592e-038
0.034319691 -0.071491279 0.51761287 1.5675758e-038
0.040518422 -0.07056579 0.51899999 1.5491364e-038
-0.031840533 -0.063362278 0.51784843 1.0602841e-038
-0.024903236 -0.06493976 0.51539457 1.2540387e-038
-0.015028859 -0.065242559 0.51150471 1.2909168e-038
-0.0080028512 -0.068274461 0.51037508 1.3831486e-038
0.016857132 -0.068459198 0.51095653 1.4937836e-038
0.025649562 -0.066123851 0.5114525 1.4845636e-038
0.034671415 -0.065057449 0.51429445 1.4753442e-038
0.04426052 -0.063759431 0.51722598 1.4200633e-038
0.050469298 -0.061382163 0.51833332 1.3831494e-038
-0.031523883 -0.055660523 0.51780003 8.667457e-039
-0.024805138 -0.055007711 0.51401609 9.8656316e-039
-0.016531046 -0.055056598 0.51070523 1.1433316e-038
0.028911052 -0.057018068 0.51020008 1.3186837e-038
0.035299364 -0.055672448 0.51117945 1.3370869e-038
0.044971861 -0.055019539 0.51440525 1.3279394e-038
0.052771743 -0.052859835 0.51754761 1.27255e-038
-0.031093506 -0.045246843 0.51851988 9.1284365e-039
-0.024781242 -0.044905212 0.51423579 8.7596484e-039
-0.016878139 -0.045423411 0.51079708 9.7734402e-039
0.037810761 -0.044334095 0.51071692 1.1433686e-038
0.044995021 -0.044891339 0.51329213 1.1434043e-038
0.054131214 -0.044809688 0.51723534 1.1342209e-038
-0.030502632 -0.036876317 0.51899999 8.2986745e-039
-0.024784582 -0.034952383 0.51566368 8.2986745e-039
-0.01526061 -0.034494955 0.51131064 8.5745397e-039
-0.0092194732 -0.031238073 0.51019996 8.3901512e-039
0.036217384 -0.034324478 0.5110687 9.6826851e-039
0.045013554 -0.034792542 0.51432729 9.7748836e-039
0.053795721 -0.035282653 0.51750547 9.6826865e-039
-0.022886867 -0.02575594 0.51712304 8.1142832e-039
-0.01487674 -0.024781965 0.51376039 8.1139217e-039
-0.0053721471 -0.02430228 0.51129377 7.9302493e-039
0.0043282169 -0.021421978 0.51055551 7.1923241e-039
0.01489363 -0.022679958 0.51059735 7.6525848e-039
0.025143869 -0.023482937 0.51061386 8.0217275e-039
0.034648478 -0.024686012 0.51222533 8.0228093e-039
0.044711053 -0.024987306 0.51610988 8.575267e-039
0.05197997 -0.027525792 0.51852 8.668543e-039
-0.021097245 -0.017525313 0.51800007 7.7447902e-039
-0.01471073 -0.015231766 0.51665473 7.5614724e-039
-0.0049656001 -0.014879537 0.51423961 7.653668e-039
0.0049428004 -0.014824688 0.51236391 8.0217317e-039
0.014829766 -0.014822165 0.51224828 8.1146462e-039
0.024779189 -0.014857511 0.51354563 8.0224519e-039
0.034848299 -0.014927104 0.51589215 8.2986787e-039
0.04315342 -0.016814653 0.51759237 8.6681829e-039
-0.012366301 -0.0090278508 0.51891667 8.0213729e-039
-0.0045121829 -0.0063340259 0.51661956 8.3905128e-039
0.0052360711 -0.0054249433 0.5167498 8.2983199e-039
0.014743557 -0.0052292403 0.51642084 8.1142874e-039
0.024725964 -0.0064795949 0.51738083 8.0224561e-039
0.033351835 -0.0081802364 0.51815629 8.0224505e-039
-0.020309212 0.0081249997 0.51450002 8.4834245e-039
-0.014094961 0.0058540339 0.51359779 8.852207e-039
-0.0055966256 0.0037607546 0.51250613 9.8663617e-039
0.0041567953 0.0054084752 0.51607203 7.6514974e-039
-0.021105189 0.013895653 0.51669562 8.851135e-039
-0.016096093 0.013653198 0.51738137 7.8369803e-039
-0.0091052633 0.010471052 0.51899999 6.822464e-039
-0.12256265 0.12958421 0.51885712 1.2988696e-038
-0.11590501 0.12919255 0.51838893 1.3452202e-038
-0.092873678 0.12975 0.51899999 1.2346591e-038
-0.081947371 0.12975 0.51899999 7.6431779e-039
-0.13066052 0.13885526 0.51899999 6.3535181e-039
-0.12458449 0.1349853 0.51552767 7.8279181e-039
-0.11571559 0.13283089 0.5130111 1.1515731e-038
-0.10520649 0.13167858 0.51414281 1.3545121e-038
-0.095047869 0.13208704 0.51632261 1.2439496e-038
-0.084606536 0.13245714 0.51440835 9.9494923e-039
-0.079572365 0.13306755 0.51249999 7.920841e-039
-0.033250235 0.13720725 0.51065379 1.0789789e-038
-0.024374496 0.13675287 0.51274544 4.5103496e-039
-0.015289446 0.13702449 0.51492745 5.8914651e-039
-0.0048288824 0.13775274 0.51303691 6.3520789e-039
0.0051423553 0.13783969 0.51422852 6.5368275e-039
0.014753757 0.13747676 0.5146665 6.2598833e-039
0.023825414 0.13875006 0.51321208 5.707434e-039
0.039378949 0.13940701 0.51600003 7.8293852e-039
0.044324018 0.13870792 0.51642501 1.0318279e-038
0.053865924 0.13937873 0.5173077 1.2346207e-038
0.063536443 0.13963787 0.51700002 1.2716433e-038
0.07056579 0.1397658 0.51899999 1.2808276e-038
-0.13081297 0.14505894 0.51840007 4.3274002e-039
-0.1251552 0.1447165 0.51302123 4.9716766e-039
-0.11944737 0.14002632 0.50999999 6.4467815e-039
0.0065654977 0.14011784 0.5103333 7.181827e-039
0.015624803 0.14061394 0.51154542 7.2736639e-039
0.023782872 0.14081213 0.51161903 7.0892768e-039
0.039815787 0.14002632 0.50999999 9.4881639e-039
0.044986837 0.14150029 0.51364994 1.0133519e-038
0.056684762 0.14093475 0.51417142 1.2438402e-038
0.065292999 0.14148699 0.51318955 1.2808273e-038
0.075165145 0.14168525 0.51349986 1.2807911e-038
0.084981851 0.14232901 0.51469117 1.2531323e-038
0.095284693 0.142894 0.51399988 1.2900113e-038
0.10476215 0.14377123 0.51357138 1.2901193e-038
0.11528826 0.14489758 0.51326591 1.2440218e-038
0.1231695 0.14708336 0.51632643 1.0227171e-038
-0.1237704 0.1514864 0.51075 9.2125145e-040
0.11907389 0.15451279 0.51056516 7.3705539e-039
0.1244409 0.15512429 0.51462215 7.0939642e-039
0.13053465 0.15918815 0.51849997 6.1730799e-039
0.11923334 0.16226491 0.51100004 6.5418834e-039
0.12420324 0.16245075 0.51360422 6.0819955e-039
0.13040876 0.16039824 0.51800001 5.7121059e-039
-0.023367656 -0.091838278 0.5292083 1.4753443e-038
-0.014417961 -0.093589395 0.52706158 1.5122583e-038
-0.0052437317 -0.093935139 0.525976 1.586015e-038
0.0046677268 -0.093204573 0.52538812 1.263506e-038
0.014658988 -0.092475943 0.52729273 1.3002063e-038
0.024344224 -0.091497518 0.52910346 1.5952707e-038
0.031149125 -0.090657897 0.52999997 1.604526e-038
-0.032820523 -0.082824342 0.52865714 1.4292469e-038
-0.025085291 -0.085036695 0.52564275 1.4016244e-038
-0.015741417 -0.085791245 0.52166289 1.4476856e-038
-0.0049465103 -0.08770927 0.52106667 1.5399174e-038
0.0055371835 -0.087491691 0.52140826 1.5399523e-038
0.015571482 -0.086031534 0.52268887 1.5583561e-038
0.025222618 -0.08489994 0.52484685 1.5860513e-038
0.034810327 -0.085110888 0.52757424 1.5676479e-038
0.044442639 -0.083350219 0.52859408 1.53077e-038
0.052147634 -0.081241287 0.52969229 1.512295e-038
-0.040789988 -0.072524928 0.52941662 9.311746e-039
-0.034883946 -0.07485155 0.52536839 1.2724781e-038
-0.026354482 -0.077029884 0.52105457 1.3740375e-038
-0.019157894 -0.079824559 0.51999998 1.3740366e-038
0.026947146 -0.078645833 0.52065003 1.6044541e-038
0.035511978 -0.076338232 0.52192003 1.5583927e-038
0.044962402 -0.075129628 0.52389902 1.5215145e-038
0.054707892 -0.074604504 0.52710879 1.4754166e-038
0.063905649 -0.072914951 0.52943987 1.4385022e-038
-0.041261237 -0.064212039 0.52896154 1.1249291e-038
-0.036026068 -0.065658517 0.52244586 1.0787951e-038
-0.029649122 -0.069789477 0.51999998 1.3647808e-038
0.046772424 -0.068057045 0.52070004 1.4938199e-038
0.05511022 -0.065263771 0.52278548 1.4385024e-038
0.064606801 -0.064615704 0.52648056 1.4109157e-038
0.071520671 -0.062639631 0.52943742 1.3832569e-038
-0.042151172 -0.055076644 0.52844453 1.0511005e-038
-0.036288936 -0.054717392 0.52303964 9.4050206e-039
0.056387689 -0.056340009 0.52075648 1.3002441e-038
0.065286309 -0.054825671 0.52350003 1.1896077e-038
0.073341399 -0.054781441 0.52855879 1.254183e-038
-0.041732367 -0.045501605 0.52816272 9.1277135e-039
-0.035868462 -0.044975702 0.52275896 9.3128236e-039
0.059376221 -0.045739103 0.52005267 9.31169e-039
0.065040685 -0.045048304 0.52239269 7.5628807e-039
0.074369021 -0.044784609 0.52736491 1.0421329e-038
-0.041034963 -0.036308818 0.52842855 8.4827028e-039
-0.035189822 -0.035033796 0.5234856 8.3908701e-039
-0.029649122 -0.030561402 0.51999998 8.4827042e-039
0.058743045 -0.034165435 0.52073336 8.8529273e-039
0.065091908 -0.035169225 0.52275234 8.8529287e-039
0.074828789 -0.034924064 0.5283978 8.8536531e-039
0.081266657 -0.036542103 0.52999991 9.2224427e-039
-0.034657273 -0.02554569 0.52592921 8.2061201e-039
-0.027554851 -0.024188658 0.52103579 8.2061201e-039
0.0497193 -0.021438597 0.51999998 8.9447684e-039
0.055640284 -0.024403768 0.52123541 8.9447726e-039
0.064696632 -0.025403347 0.52497399 8.9447712e-039
0.07302019 -0.02626412 0.52910191 8.5763488e-039
-0.032731887 -0.015823178 0.52828807 7.7462252e-039
-0.025525259 -0.014924039 0.52326721 7.929899e-039
-0.018592434 -0.011063925 0.52012497 7.9306206e-039
0.0465241 -0.013684047 0.52059394 8.4834315e-039
0.055026639 -0.015064281 0.5239557 8.391596e-039
0.064000122 -0.016170757 0.52753669 8.1150091e-039
0.070201755 -0.019526316 0.52999997 8.2082865e-039
-0.030778838 -0.008710417 0.529625 7.9306192e-039
-0.024309468 -0.005678284 0.52715564 8.2990416e-039
-0.015413771 -0.0045866007 0.52213764 8.2983228e-039
-0.0056997566 -0.0031047023 0.52060008 8.2983157e-039
0.0029122804 -0.0012982456 0.51999998 8.7592981e-039
0.018441102 -0.00084711786 0.51999998 7.8373418e-039
0.025670391 -0.0016167141 0.52078378 8.1135728e-039
0.035794578 -0.0039168866 0.52175003 7.6540281e-039
0.045004237 -0.0050050723 0.52398211 8.0213743e-039
0.054338895 -0.005753295 0.52738768 7.8380621e-039
0.061694212 -0.0086405259 0.52960002 7.7455021e-039
-0.022234704 0.0017421601 0.52943742 8.4827168e-039
-0.017709525 0.0020524436 0.52714288 8.3908743e-039
-0.0034759988 0.007895004 0.52086115 5.1622112e-039
0.0069927452 0.0039378847 0.52037853 1.0050753e-038
0.015121423 0.005046912 0.52222306 9.3128334e-039
0.025173228 0.0049740258 0.52413547 8.0220946e-039
0.034971122 0.0051868511 0.52653116 8.2061257e-039
0.044795442 0.0047792383 0.52825874 8.4830755e-039
0.051906627 0.0022775 0.52974993 8.7592981e-039
-0.020982455 0.018701755 0.51999998 8.7596694e-039
-0.013160661 0.017322499 0.52057785 7.5603962e-039
-0.0059664142 0.01385678 0.52140242 7.9295332e-039
0.0060186875 0.01476931 0.52608532 5.4395211e-039
0.014889213 0.013902826 0.52705753 7.6522275e-039
0.025098415 0.012791118 0.52932721 8.0213757e-039
0.0347519 0.012507844 0.52954715 8.4830713e-039
0.041642852 0.011091479 0.52999997 8.4837902e-039
-0.020618422 0.022911405 0.52233332 8.8529287e-039
-0.014885259 0.025006423 0.52186054 8.5749012e-039
-0.0081413575 0.02720842 0.52359253 8.6670955e-039
-0.012785232 0.034007393 0.52565306 8.1146349e-039
-0.0052391351 0.035072345 0.52852273 9.4050206e-039
0.0010828947 0.033730846 0.52916664 1.1433329e-038
-0.011147806 0.040409211 0.52950001 8.4830447e-039
-0.0051601254 0.04162699 0.52945709 8.6678129e-039
-0.13393502 0.12848735 0.52742428 9.4870751e-039
-0.12512542 0.12757015 0.52490151 1.2807188e-038
-0.1147138 0.12793826 0.52474076 1.3452566e-038
-0.10491789 0.12805194 0.52571011 1.3268535e-038
-0.095125861 0.12855591 0.52552825 1.216219e-038
-0.087232485 0.12828746 0.5259667 9.3034125e-039
-0.14134771 0.13706437 0.52927762 5.9851027e-039
-0.13530828 0.13473456 0.5245204 6.8141375e-039
-0.12867281 0.13133407 0.52016664 8.4729217e-039
-0.1108421 0.13 0.51999998 1.3177411e-038
-0.1054894 0.13036247 0.52092856 1.3361085e-038
-0.094052792 0.13034785 0.52072728 1.2439495e-038
-0.0876031 0.13059209 0.52140003 1.068705e-038
-0.020605264 0.13416199 0.52200001 3.4130432e-039
-0.01479712 0.1338298 0.52312499 4.514688e-039
-0.0054435171 0.13515584 0.52297229 4.785849e-039
0.0041747671 0.13487604 0.5219149 4.8776845e-039
0.046704087 0.13689411 0.52569991 1.1424983e-038
0.05496905 0.13760309 0.52533329 1.2254377e-038
0.06449274 0.1380969 0.52310908 1.2715716e-038
0.075242221 0.138604 0.52688676 1.2623161e-038
0.084769957 0.13882162 0.52614003 1.2255455e-038
0.095298871 0.13916627 0.52730304 1.271572e-038
0.10539969 0.13907853 0.52917236 1.2900474e-038
0.11491054 0.13927586 0.52933329 1.3084863e-038
0.12428916 0.13929978 0.52882344 1.2716803e-038
0.13157018 0.13993859 0.52999997 1.2440931e-038
-0.14125304 0.14167218 0.52827269 4.0526168e-039
-0.13500717 0.1435634 0.5216428 3.867148e-039
0.053571053 0.14045386 0.52019995 1.2070338e-038
0.065458946 0.14014281 0.52039993 1.2808269e-038
0.074512638 0.14058217 0.52204549 1.2716072e-038
0.085649952 0.14048746 0.52150005 1.2347652e-038
0.095221929 0.14121693 0.52375668 1.2807914e-038
0.10533916 0.14120154 0.52363461 1.2900829e-038
0.11454815 0.14149952 0.52488893 1.2900832e-038
0.12543797 0.14301315 0.52344322 1.2255465e-038
0.13455959 0.14554913 0.52674717 9.4906876e-039
0.14039001 0.14780542 0.52820003 7.4634656e-039
0.1290877 0.15326315 0.51999998 7.0946886e-039
0.13481179 0.15494464 0.52362484 6.7251845e-039
0.14089786 0.15317543 0.52933335 6.5411547e-039
0.13492647 0.16062003 0.52316672 6.5418862e-039
-0.024285525 -0.10066316 0.53750002 1.5674685e-038
-0.014670343 -0.10207529 0.53680766 1.5491373e-038
-0.004812263 -0.10286659 0.536551 1.6413332e-038
0.0049685966 -0.1028372 0.53627992 1.6506246e-038
0.015105842 -0.10199223 0.53723681 1.6137462e-038
0.022565829 -0.10167933 0.5373913 1.6045263e-038
-0.040188596 -0.09030614 0.53899997 9.7755884e-039
-0.032912582 -0.092912525 0.53702843 1.438539e-038
-0.02532913 -0.096194103 0.53381932 1.512223e-038
-0.016379921 -0.098254465 0.53246433 1.5399536e-038
-0.004263761 -0.099143915 0.53218752 1.6597719e-038
0.0059993686 -0.098639004 0.53340638 1.521479e-038
0.015234249 -0.097330824 0.53348893 1.4938534e-038
0.025194656 -0.09653382 0.53470773 1.6044908e-038
0.034959584 -0.094726123 0.53552639 1.6045621e-038
0.044891611 -0.092553534 0.53658128 1.6229658e-038
0.05235574 -0.091611475 0.53769243 1.6045265e-038
-0.042703722 -0.083550304 0.53724992 1.2448565e-038
-0.036173183 -0.086059101 0.53388512 1.4200278e-038
0.038194738 -0.089897372 0.53100002 1.6137453e-038
0.046282005 -0.08779379 0.53227276 1.567648e-038
0.05520051 -0.085559346 0.53427505 1.5399536e-038
0.063861571 -0.08356259 0.53730607 1.5399897e-038
-0.044769872 -0.075351574 0.53527385 1.0603567e-038
-0.03937785 -0.07898882 0.53125 1.4200272e-038
0.058608189 -0.079128653 0.5316667 1.5306984e-038
0.065909415 -0.076736704 0.53314 1.4846363e-038
0.072938815 -0.073882192 0.53706807 1.4477944e-038
-0.050590351 -0.06004649 0.53899997 1.1342211e-038
-0.045828871 -0.065014631 0.53447074 1.1433323e-038
0.069402635 -0.06893684 0.53100002 1.4017322e-038
0.075720079 -0.065526351 0.53484815 1.3740373e-038
0.081465095 -0.063402116 0.53747368 1.3188276e-038
-0.050806887 -0.053977944 0.5384286 1.0419896e-038
-0.047378898 -0.054928109 0.53433335 1.041953e-038
0.078235745 -0.055510469 0.53206253 1.2357083e-038
0.083355002 -0.054196194 0.53633869 1.217269e-038
-0.050890956 -0.045720793 0.53864712 9.406101e-039
-0.04668504 -0.044631779 0.53348446 9.0362381e-039
0.07957273 -0.045284372 0.5321818 1.0605352e-038
0.084819376 -0.044787854 0.53548348 1.0513169e-038
-0.050849233 -0.034160234 0.53839999 8.6681759e-039
-0.045742724 -0.034690883 0.53376156 8.57526e-039
0.079405263 -0.032546867 0.53114289 9.4979463e-039
0.084523678 -0.035107151 0.53526473 9.6834166e-039
-0.050590351 -0.028368421 0.53899997 8.57526e-039
-0.044768736 -0.025154535 0.53479409 8.3905114e-039
-0.039079461 -0.021986037 0.53141671 8.1135644e-039
0.076553918 -0.023425037 0.53250861 8.2997619e-039
0.083239488 -0.025063219 0.53646266 8.3001206e-039
-0.042668026 -0.015739353 0.53718174 7.5607563e-039
-0.037513927 -0.014396558 0.5333963 7.9295388e-039
0.067650385 -0.012728823 0.53185719 8.2994032e-039
0.075054348 -0.015047332 0.5350309 8.2994032e-039
0.081068717 -0.016904095 0.53783333 8.2994032e-039
-0.040707648 -0.0089783212 0.53871429 7.9306178e-039
-0.034599252 -0.0052625039 0.53498888 8.2979626e-039
-0.028228421 -0.002424561 0.53190005 8.2075621e-039
0.058072452 -0.0020586168 0.53211761 8.115372e-039
0.065206334 -0.0047229896 0.53387642 8.1146504e-039
0.073364832 -0.0067318915 0.53733909 8.2072061e-039
-0.032269433 0.0024673413 0.53730762 8.4827126e-039
-0.025713334 0.0052774679 0.53450602 8.391233e-039
0.047416668 0.009669737 0.53125006 8.5756299e-039
0.055850431 0.0057794158 0.53320009 8.8514965e-039
0.064581893 0.0048682299 0.53611875 8.8525741e-039
0.070448242 0.00094561407 0.53899997 9.0373227e-039
-0.0029188464 0.017454093 0.5351212 5.0707372e-039
0.0021968673 0.017460275 0.53185719 5.1625839e-039
0.016130609 0.018485641 0.53173685 8.2057656e-039
0.02474241 0.017489169 0.53177541 8.4830727e-039
0.035120104 0.017156135 0.53256154 8.575267e-039
0.045125198 0.015256978 0.53315073 8.7596582e-039
0.054487616 0.01465864 0.5356701 8.9440509e-039
0.063003242 0.012392528 0.53792584 9.0369654e-039
-0.0044525489 0.022415642 0.53673577 6.5458771e-039
0.0063946163 0.02381867 0.53368366 5.7161108e-039
0.01498957 0.02482898 0.53396398 9.3131865e-039
0.024873892 0.02487939 0.53496689 9.2209979e-039
0.035068471 0.024789544 0.53547001 8.7592967e-039
0.044643488 0.024630934 0.53659767 8.8514937e-039
0.052310534 0.022231519 0.53757137 9.2202762e-039
-0.00046578946 0.037728947 0.53100002 1.0881224e-038
0.005442657 0.035103776 0.53479046 1.0880882e-038
0.015104337 0.033561703 0.53713876 8.7592939e-039
0.023915023 0.032194741 0.53830761 9.4043046e-039
0.033132892 0.031244298 0.53850001 8.6667339e-039
-0.002241964 0.045474045 0.53229034 8.5756145e-039
0.0026621395 0.044799577 0.53416091 8.8511196e-039
0.0018736841 0.05012105 0.53399998 7.8362656e-039
-0.1432136 0.12714347 0.53621948 8.0133995e-039
-0.13510013 0.12519144 0.53398573 1.1884156e-038
-0.12468975 0.12490183 0.53581131 1.3084142e-038
-0.11526301 0.12570436 0.53533328 1.3360368e-038
-0.10481238 0.12547967 0.53549999 1.2899753e-038
-0.095227771 0.12592229 0.5348593 1.1332431e-038
-0.088879302 0.12599787 0.5316 8.8420756e-039
-0.15109175 0.13861842 0.53859997 1.5637202e-039
-0.14580829 0.13468021 0.53524625 5.9861845e-039
-0.005188853 0.13305277 0.53285366 3.7756698e-039
0.046865787 0.13413654 0.53608328 1.1240958e-038
0.055921301 0.13405368 0.5345965 1.1700844e-038
0.064752661 0.13544916 0.53369242 1.2162545e-038
0.075699724 0.13621664 0.53474468 1.2346573e-038
0.085302144 0.13590078 0.53481811 1.2254375e-038
0.094718255 0.13661365 0.53527147 1.2531687e-038
0.10455906 0.13675001 0.53469646 1.2808639e-038
0.11486483 0.13765024 0.53447825 1.2993029e-038
0.12546419 0.13841254 0.53470272 1.2716802e-038
0.13453707 0.13854735 0.53559995 1.2624245e-038
0.14126979 0.13875049 0.53822219 1.2716803e-038
-0.1465643 0.14137903 0.53399998 1.3800562e-039
0.1369971 0.14104165 0.53233337 1.2071794e-038
0.14384176 0.14458998 0.53729624 9.2141007e-039
0.14482601 0.15527256 0.53557891 6.4496836e-039
-0.014685627 -0.11071762 0.5453077 1.1522985e-038
-0.0046581379 -0.11059128 0.54238898 1.705798e-038
0.0036095616 -0.11060552 0.54070002 1.6782833e-038
0.014539584 -0.11089638 0.54787499 1.6690277e-038
0.021189474 -0.11028158 0.54900002 1.678211e-038
-0.02335857 -0.10476831 0.54343599 1.3829321e-038
-0.015368796 -0.10681813 0.5423519 1.5397732e-038
-0.0052674366 -0.10750736 0.54082936 1.6413691e-038
0.0052534905 -0.10778967 0.54051089 1.6598443e-038
0.015328967 -0.10706962 0.5425626 1.6505885e-038
0.025696725 -0.1052067 0.54369235 1.6413688e-038
0.034540325 -0.10337368 0.54410654 1.6413689e-038
0.04422348 -0.10235513 0.54664505 1.6598439e-038
0.054282341 -0.10151941 0.54762501 1.6230377e-038
0.060087718 -0.10094737 0.54799998 1.6321859e-038
-0.042307019 -0.091159649 0.546 1.0141849e-038
-0.03621278 -0.094166473 0.54039127 1.3647103e-038
-0.029842107 -0.099947363 0.54000002 1.4014809e-038
0.029842107 -0.099947363 0.54000002 1.6045267e-038
0.035677664 -0.099524215 0.54007691 1.6321491e-038
0.045311954 -0.097408973 0.54112518 1.6229657e-038
0.055781536 -0.095531479 0.5431096 1.5953431e-038
0.063610531 -0.093824729 0.54615992 1.5584289e-038
-0.050809354 -0.081200585 0.54133338 1.0785057e-038
-0.045981027 -0.084691964 0.54116672 1.0417721e-038
0.06606207 -0.086596593 0.54062521 1.5400258e-038
0.074864522 -0.083754443 0.54427958 1.4846722e-038
0.08168187 -0.081039764 0.54666668 1.4662691e-038
-0.051627085 -0.07384225 0.54232001 1.0508833e-038
-0.04935142 -0.074788161 0.54038888 1.0326604e-038
0.077114969 -0.076125309 0.54114914 1.4386464e-038
0.083018482 -0.074199803 0.54543751 1.4016601e-038
-0.053615838 -0.06445206 0.5442543 1.0694675e-038
-0.049495831 -0.068250872 0.54124999 1.1526243e-038
0.085827351 -0.065183312 0.54285091 1.2635107e-038
0.09147951 -0.06280981 0.54809088 1.2450364e-038
-0.054558616 -0.055407114 0.5430879 1.0695761e-038
0.087777935 -0.055951614 0.54053134 1.226524e-038
0.093243673 -0.055131231 0.54599994 1.263367e-038
-0.060197368 -0.042378947 0.54900002 9.7727214e-039
-0.055029966 -0.044509731 0.54247153 9.7738032e-039
0.089526311 -0.047842108 0.54000002 1.0606439e-038
0.09470126 -0.044725891 0.54489195 1.0698282e-038
-0.063846894 -0.038921054 0.54654545 1.0047136e-038
-0.055761691 -0.035182748 0.54402441 9.2206336e-039
0.088801846 -0.033854492 0.54000002 9.4993869e-039
0.09401837 -0.035610698 0.54324996 9.7756136e-039
-0.054325059 -0.025120491 0.54450667 8.4830671e-039
-0.049060859 -0.021330591 0.54037499 8.1157238e-039
0.0882634 -0.024849534 0.54080558 8.4848748e-039
0.09323784 -0.024983611 0.54504997 8.3926792e-039
-0.053177767 -0.015238889 0.54595232 7.5614724e-039
-0.047342122 -0.014592262 0.5411458 7.561471e-039
0.08555913 -0.014552167 0.54180026 8.3915988e-039
0.092307225 -0.015186747 0.54719573 8.5763488e-039
-0.05132924 -0.0081711495 0.54799998 7.7455021e-039
-0.044498459 -0.0053366921 0.54350591 7.9291773e-039
-0.038574558 -0.0019749999 0.54066664 8.2976025e-039
0.076368757 -0.003161385 0.54006159 9.1295212e-039
0.084721155 -0.0050111031 0.54326659 9.3146327e-039
0.091734461 -0.0056056199 0.54751843 9.8688827e-039
-0.042345062 0.0032423243 0.54699993 8.4823525e-039
-0.036130246 0.0056254514 0.5432533 8.4827126e-039
-0.028790131 0.0093596485 0.54025 8.2075578e-039
0.068999998 0.0086842105 0.54000002 9.0369584e-039
0.075018317 0.0051278002 0.54144251 8.9447698e-039
0.084564708 0.0043227226 0.54564297 8.2068432e-039
0.091071047 0.002728655 0.54883331 7.6536652e-039
-0.033609573 0.013938952 0.54624319 8.7592967e-039
-0.026421586 0.015363515 0.54317909 8.7600198e-039
0.058263157 0.018879699 0.54000002 9.036971e-039
0.06548366 0.016191754 0.54087681 8.8525741e-039
0.074582525 0.014977974 0.54456961 8.2993989e-039
0.082120612 0.011330514 0.54792851 7.3767252e-039
-0.030598873 0.022210402 0.54871428 9.0355192e-039
-0.025252946 0.02465459 0.5474447 9.0366011e-039
-0.0053405375 0.02703283 0.54172724 7.8380635e-039
0.001185307 0.024405921 0.54025006 6.1756639e-039
0.048402414 0.028978288 0.54008335 8.482707e-039
0.055800281 0.026069744 0.54031754 8.8518497e-039
0.064779855 0.024770943 0.54293996 9.0366053e-039
0.074362062 0.024722986 0.54680914 9.1295198e-039
-0.022614034 0.030552633 0.54849994 8.7592953e-039
-0.019708773 0.030284211 0.54799998 8.4827042e-039
0.0076297373 0.037956573 0.54020005 1.088087e-038
0.01512381 0.038518358 0.54114288 9.0351633e-039
0.025657762 0.036587622 0.54121763 8.758931e-039
0.035326269 0.035839632 0.54155701 8.3901484e-039
0.044875894 0.035118297 0.54234976 8.1132056e-039
0.054914299 0.035345912 0.54436553 7.9288102e-039
0.064835146 0.034194592 0.54659802 8.1132028e-039
0.073037274 0.032062959 0.54764515 8.2983129e-039
0.0081566498 0.044683542 0.54490322 9.6808817e-039
0.014793829 0.044933699 0.54531765 8.8504077e-039
0.024773348 0.043838635 0.54698646 8.2972325e-039
0.034722351 0.043345302 0.54678267 8.3897897e-039
0.044784691 0.042230442 0.5477106 8.2050383e-039
0.054018538 0.041606098 0.54791307 7.8366131e-039
0.060678948 0.040934213 0.54900002 7.7426182e-039
0.0081868423 0.05056579 0.54900002 7.9277298e-039
0.011557895 0.050565787 0.54900002 8.4819825e-039
-0.14465815 0.11942033 0.54754537 1.3543688e-038
-0.13291579 0.11991315 0.54900002 1.3267813e-038
-0.12372955 0.11936532 0.54784614 1.3452202e-038
-0.11535096 0.11967289 0.54789996 1.3912105e-038
-0.15163946 0.12491751 0.54520684 7.553506e-039
-0.14556243 0.12300254 0.54236382 1.0133162e-038
-0.13516292 0.12178542 0.54382771 1.3452566e-038
-0.12509824 0.12189607 0.54392982 1.354476e-038
-0.11476979 0.1222698 0.54365683 1.3636237e-038
-0.10525516 0.12259705 0.54463077 1.271536e-038
-0.096870534 0.12291384 0.54416126 1.0779616e-038
0.054339819 0.12935597 0.54819995 1.0504095e-038
0.077392988 0.12930878 0.54799998 1.0963999e-038
-0.15278204 0.13363731 0.54317957 5.4348142e-039
-0.14921053 0.13073683 0.54000002 6.9077779e-039
0.048651103 0.1326386 0.54712492 1.077889e-038
0.053852286 0.13240369 0.54558194 1.0963283e-038
0.065833509 0.13289191 0.54591793 1.1332421e-038
0.074834667 0.13304266 0.54423761 1.1701925e-038
0.084240973 0.13333499 0.54554009 1.179412e-038
0.095497929 0.13390367 0.54456419 1.2254386e-038
0.10499184 0.13466257 0.54473907 1.2623883e-038
0.11489057 0.13523532 0.54280788 1.2900833e-038
0.12475965 0.13608657 0.54361683 1.2716799e-038
0.13495022 0.13639501 0.5442242 1.2624249e-038
0.1450292 0.13722767 0.54498315 1.2624966e-038
0.15197827 0.13846587 0.54707682 1.1056922e-038
0.14812134 0.14408198 0.54096431 8.753124e-039
0.15337111 0.14567891 0.54555166 7.370914e-039
0.14791009 0.15196294 0.54005551 6.5422365e-039
0.15371349 0.15238063 0.54467744 6.2652979e-039
0.0072847642 -0.11477268 0.55378938 1.6782836e-038
0.014797309 -0.11382751 0.55143189 1.6782473e-038
0.025094785 -0.11251705 0.55348575 1.6598441e-038
0.034576938 -0.11218964 0.55514288 1.6598443e-038
0.041625816 -0.11126392 0.55457139 1.6783553e-038
0.026550125 -0.10943634 0.5502857 1.6506246e-038
0.036133718 -0.10809056 0.55276 1.6505888e-038
0.045487806 -0.10681978 0.55227667 1.6598082e-038
0.053537633 -0.1040803 0.55073923 1.6414049e-038
0.065985486 -0.10158224 0.55434996 1.6137823e-038
0.070464909 -0.10059474 0.55400002 1.6414409e-038
0.067800708 -0.096604511 0.55248392 1.5584645e-038
0.074079975 -0.094095975 0.55358589 1.5492092e-038
0.081867546 -0.091332063 0.55811113 1.5031474e-038
0.076141931 -0.089221045 0.5528 1.5123305e-038
0.08533404 -0.085086234 0.55656052 1.4662332e-038
0.090598993 -0.083745614 0.55828571 1.4386467e-038
0.087597422 -0.076011412 0.5517059 1.4109521e-038
0.093417674 -0.073177993 0.55555266 1.3464511e-038
-0.058055561 -0.062236842 0.55000001 1.0505591e-038
0.089254387 -0.069956139 0.55000001 1.3464508e-038
0.095462732 -0.065596521 0.55382246 1.2818783e-038
0.10150263 -0.064726315 0.55900002 1.2726947e-038
-0.060562868 -0.057656433 0.55233335 1.0781817e-038
-0.059074417 -0.057626173 0.55049998 9.9549378e-039
0.098552793 -0.055051044 0.55476195 1.2265243e-038
0.10125833 -0.053731889 0.5553571 1.060679e-038
-0.062134385 -0.040489122 0.55079997 9.9556665e-039
0.098701753 -0.049430996 0.55066669 9.2220629e-039
0.10215484 -0.043019041 0.55252934 1.1158907e-038
-0.061338466 -0.035884589 0.55185711 9.6801642e-039
0.098683789 -0.03362165 0.55047375 9.4061052e-039
0.10192033 -0.034490764 0.55278116 9.2220811e-039
-0.061636336 -0.024260683 0.5537647 8.9436852e-039
-0.059013687 -0.024049005 0.55053341 8.3908743e-039
0.098307811 -0.025068555 0.55123073 8.4845147e-039
0.10269347 -0.024993153 0.55411553 8.4845161e-039
-0.060768526 -0.015728753 0.55522221 7.1926969e-039
-0.057867806 -0.014415473 0.55202776 8.1139287e-039
0.097322263 -0.014727028 0.55175471 9.1302456e-039
0.10313927 -0.015292166 0.55624133 9.4071926e-039
-0.053739239 -0.0049960446 0.55384314 8.0213729e-039
-0.04873677 -0.0022576754 0.55191666 8.1135686e-039
0.096810475 -0.0045035104 0.5529843 9.959642e-039
0.10223279 -0.0057539046 0.55641937 8.761096e-039
-0.051317878 0.0019196358 0.55715382 8.2979584e-039
-0.04628047 0.0055248868 0.55377787 8.5741852e-039
0.088629737 0.0081065297 0.55077779 6.6373637e-039
0.09550821 0.0051772404 0.55486476 6.4547661e-039
0.10053649 0.0048045614 0.55799997 7.0990621e-039
-0.042599451 0.013984718 0.55506003 8.666378e-039
-0.03732802 0.017283849 0.55176467 8.8511308e-039
0.079418316 0.017381251 0.55037504 8.2072075e-039
0.085315309 0.015468015 0.55402577 8.0220946e-039
0.093301117 0.012455213 0.55799997 6.82355e-039
-0.040651318 0.021664035 0.55500001 8.8507594e-039
-0.034688193 0.024603594 0.55261636 8.9429607e-039
-0.028027665 0.028176248 0.55015391 8.9436852e-039
0.079144582 0.026909806 0.55045456 9.1295226e-039
0.084263049 0.025105285 0.55502868 9.4986638e-039
-0.031560086 0.030830264 0.5535 9.0355192e-039
-0.024541602 0.034540817 0.55269128 9.1277135e-039
-0.018016301 0.036469661 0.55263877 8.6674528e-039
0.066535085 0.038815793 0.55000007 7.5600248e-039
0.075838178 0.036184616 0.55236053 7.3759923e-039
0.083217397 0.034004752 0.55615383 7.8380509e-039
-0.021401756 0.040858332 0.55449998 9.2199147e-039
-0.014533877 0.043897606 0.55566686 8.9440383e-039
-0.0076514916 0.047598157 0.55540001 9.1291526e-039
0.0059535089 0.049401462 0.55033332 8.3886995e-039
0.019298246 0.049692981 0.55000001 8.3901414e-039
0.025616733 0.048889447 0.55100006 8.4819825e-039
0.034996565 0.048425358 0.55138236 8.666378e-039
0.045406792 0.047021847 0.55126655 8.4819881e-039
0.055453286 0.046102911 0.55246973 7.928806e-039
0.064891197 0.044462942 0.55388355 7.0979579e-039
0.074140489 0.043062039 0.55657697 6.8213668e-039
-0.010278948 0.050415792 0.55800003 9.4057465e-039
-0.0041032117 0.054011021 0.55566216 9.8663603e-039
0.0049088551 0.055529278 0.5534187 8.758568e-039
0.014818746 0.054677263 0.55370784 8.4816196e-039
0.0254745 0.054837074 0.55557656 8.8504063e-039
0.03512755 0.054897465 0.55484807 8.7582107e-039
0.044585295 0.054588985 0.55546755 8.3894282e-039
0.054133527 0.052643012 0.55685443 7.9280871e-039
0.061203074 0.050920904 0.55816668 7.2816345e-039
-0.0011425439 0.060876757 0.55816668 1.0511378e-038
0.0048522041 0.062016312 0.55762154 9.6808845e-039
0.01159191 0.060894839 0.55833334 8.8511266e-039
0.029911404 0.060313158 0.55900002 8.8504049e-039
0.035682853 0.060942575 0.55863637 8.2975885e-039
0.041454215 0.060662281 0.55860007 8.2043194e-039
-0.15320288 0.11840137 0.55666667 1.0869642e-038
-0.1451133 0.11784039 0.55387765 1.3452928e-038
-0.13484846 0.11832705 0.55400008 1.3452926e-038
-0.12575096 0.11891271 0.5541923 1.3544042e-038
-0.11616479 0.11942704 0.55552173 1.3452203e-038
-0.10285877 0.11892976 0.55653852 1.1793042e-038
-0.097680174 0.11896352 0.55399996 9.0264711e-039
-0.16198218 0.12663969 0.55725914 5.4362617e-039
-0.15673235 0.12432347 0.55470592 7.5538731e-039
-0.14039473 0.12013157 0.55000001 1.3453296e-038
-0.13557018 0.12013157 0.55000001 1.3268891e-038
-0.12978069 0.12013157 0.55000001 1.3084138e-038
-0.11152676 0.12048143 0.55683333 1.3452922e-038
-0.10508976 0.12063359 0.55396301 1.2530967e-038
-0.0974475 0.1209059 0.55228573 9.6729055e-039
0.038247373 0.12994298 0.55900002 8.3825394e-039
0.04532044 0.12904701 0.55619997 8.7513135e-039
0.054127194 0.12953246 0.551 1.0319345e-038
0.065131575 0.12978069 0.55000001 1.0686694e-038
0.086729616 0.12919407 0.55788893 1.1240956e-038
0.095216379 0.12921679 0.55828565 1.1979598e-038
0.10242262 0.12913226 0.55792862 1.2256184e-038
-0.16196042 0.13171317 0.55612504 2.4867499e-039
-0.15779611 0.13172054 0.55208337 5.8961511e-039
0.038400821 0.13173153 0.55418754 9.1193828e-039
0.044365872 0.13158336 0.55390906 9.5810742e-039
0.056761842 0.13056076 0.55075002 1.0503378e-038
0.062571235 0.13045405 0.55040008 1.0686694e-038
0.073770471 0.13219664 0.55816668 1.0594866e-038
0.085516274 0.1311298 0.55355883 1.1609018e-038
0.094696961 0.1319343 0.55361819 1.1978875e-038
0.10509921 0.13217852 0.55385184 1.2347302e-038
0.11480229 0.13285747 0.55432141 1.2624246e-038
0.12518507 0.13299648 0.5547657 1.280828e-038
0.13512155 0.13287345 0.55397195 1.2624605e-038
0.1448914 0.13369869 0.55418885 1.2808999e-038
0.1548924 0.13570918 0.55549997 1.2348018e-038
0.16046104 0.13750814 0.55842865 9.3977787e-039
0.15861942 0.14582402 0.555125 7.3716343e-039
0.16064326 0.14741902 0.5583334 6.9110191e-039
0.018830409 -0.117731 0.56 1.6966145e-038
0.021624342 -0.11721009 0.56024998 1.6966145e-038
0.084982455 -0.09087719 0.56 1.5123305e-038
0.086947367 -0.088421047 0.56 1.4846003e-038
0.093375824 -0.082024559 0.56255555 1.4018406e-038
0.09512385 -0.077803157 0.56099999 1.3833651e-038
0.099391818 -0.061076019 0.56 1.2449634e-038
0.10258611 -0.061649505 0.56056249 1.2726593e-038
0.1030236 -0.057879735 0.56059998 1.2818418e-038
-0.066549852 -0.020693129 0.56616664 1.1154934e-038
-0.064678982 -0.015015466 0.56401747 1.2910645e-038
-0.059438594 -0.010315789 0.56 7.744786e-039
-0.062092651 -0.0053341403 0.56486845 1.1614096e-038
-0.057941489 -0.0036949881 0.56214291 8.6660123e-039
-0.060964037 0.0018929826 0.56779999 1.2434079e-038
-0.054907549 0.0049270946 0.56415874 9.2177301e-039
-0.04943487 0.0086085526 0.56075001 8.4819839e-039
-0.051802866 0.012097953 0.5667333 8.7578436e-039
-0.047559217 0.014482954 0.56396669 8.4819811e-039
0.089894734 0.017192982 0.56 8.9469264e-039
0.092785262 0.016705882 0.56105876 7.8398641e-039
0.088716179 0.02552209 0.56045449 9.1302414e-039
0.090960294 0.024148993 0.56096298 8.6685444e-039
-0.026929386 0.039396055 0.56850004 9.6808887e-039
0.085442789 0.038668357 0.56207138 7.0064881e-039
-0.02344447 0.044758648 0.56759197 9.8667191e-039
-0.016578611 0.047966871 0.56330764 9.5894133e-039
0.067851089 0.049166892 0.56049997 6.9135582e-039
0.075375572 0.04771658 0.56047368 7.189792e-039
0.08354944 0.043470655 0.56292605 7.0976033e-039
-0.021105262 0.051017541 0.56833333 1.023586e-038
-0.01458627 0.054643352 0.56565481 1.0235504e-038
-0.0077517186 0.057563435 0.56200004 1.0511728e-038
0.017978948 0.0592421 0.56 8.2979402e-039
0.022114472 0.059219509 0.56024998 8.6656535e-039
0.048899341 0.059219517 0.56025004 8.0202869e-039
0.055648055 0.057686646 0.56183338 7.8351656e-039
0.064556547 0.054552764 0.5639689 7.1894248e-039
0.071732163 0.051166665 0.56266665 7.004665e-039
-0.012410753 0.062132414 0.56782615 1.0788322e-038
-0.0049284445 0.065317884 0.56433332 1.051173e-038
0.0049988041 0.067102373 0.5620172 9.6805243e-039
0.015002806 0.06537313 0.5629195 8.5741726e-039
0.02420699 0.063952588 0.56233335 8.6656563e-039
0.034294941 0.063831739 0.56065798 8.8511588e-039
0.04589932 0.064634979 0.56454414 7.4696439e-039
0.052246619 0.063167229 0.56529629 7.8355243e-039
0.060393859 0.060393859 0.56900001 7.3730944e-039
-0.0035337207 0.073541105 0.56760472 9.681253e-039
0.0048401579 0.072351627 0.56446344 8.5745481e-039
0.014072305 0.07166855 0.56542861 7.9291787e-039
0.047416668 0.070376314 0.56900001 8.2173669e-039
-0.16322848 0.11862886 0.5661 7.6478722e-039
-0.15559262 0.11638436 0.56386369 1.1516459e-038
-0.14428458 0.11612115 0.56523687 1.363696e-038
-0.13495252 0.11582699 0.56564528 1.3820631e-038
-0.12490934 0.11690851 0.56502992 1.3821349e-038
-0.1146955 0.1160516 0.56560242 1.3729153e-038
-0.10582558 0.117002 0.56467736 1.1977435e-038
-0.099442109 0.11774737 0.56400001 8.289985e-039
-0.1639493 0.12366001 0.56151861 5.0685722e-039
-0.15964912 0.12035087 0.56 7.7393532e-039
-0.11150877 0.12035087 0.56 1.3361087e-038
-0.10757895 0.12035087 0.56 1.2530251e-038
0.036988597 0.12908158 0.56442857 7.8304432e-039
0.042936232 0.12916905 0.56653851 8.0144757e-039
0.056930304 0.12847878 0.56479162 9.2115658e-039
0.06587559 0.12817027 0.56609303 9.4888729e-039
0.075172134 0.12826161 0.5645625 1.0134602e-038
0.084600702 0.12786905 0.56592685 1.0779977e-038
0.095263623 0.12846865 0.56632262 1.1517904e-038
0.10617382 0.12822564 0.56553853 1.2255825e-038
0.11422831 0.12837079 0.56561702 1.2347658e-038
0.12471356 0.12884706 0.56512195 1.2440572e-038
0.13474719 0.1291189 0.56465626 1.2808639e-038
0.14539132 0.12942342 0.56530005 1.2623891e-038
0.15098092 0.12916426 0.56524998 1.2900478e-038
-0.16601354 0.13194846 0.56011111 1.821688e-044
0.035572369 0.13068157 0.56325001 8.2907067e-039
0.046369471 0.13013369 0.56840003 8.1981425e-039
0.054800082 0.13103837 0.56431031 9.7654556e-039
0.06503763 0.13107422 0.56316668 1.0318629e-038
0.074801989 0.13107505 0.56147826 1.0503025e-038
0.082038105 0.13065174 0.56299996 1.077962e-038
0.10785752 0.1306227 0.56071424 1.2163624e-038
0.11603618 0.13078842 0.56064707 1.2439497e-038
0.12448295 0.13076715 0.56066662 1.2624968e-038
0.13486792 0.13058096 0.5611428 1.2716805e-038
0.14586926 0.13128939 0.56334376 1.2716446e-038
0.15481369 0.13189328 0.56400001 1.2900834e-038
0.16380872 0.13478763 0.56581253 1.0965805e-038
0.1590756 0.1440665 0.5601818 8.0155631e-039
0.16419999 0.14382701 0.56406665 7.3727133e-039
-0.056599122 0.0095166666 0.57099998 1.2346925e-038
-0.0549591 0.01214397 0.57087505 1.1243498e-038
-0.046472371 0.019046051 0.579 8.7578506e-039
-0.04460087 0.02321293 0.57804364 8.8511238e-039
-0.032879122 0.036695555 0.57305723 9.6816103e-039
-0.028887939 0.038266011 0.57024997 9.7734444e-039
-0.031891063 0.043547034 0.57619047 1.0142587e-038
-0.027814224 0.045969233 0.57308102 1.014295e-038
-0.030981578 0.050281577 0.579 1.0235507e-038
-0.024961194 0.054765396 0.57598615 1.0512451e-038
-0.018857803 0.05827307 0.57169998 1.0788685e-038
0.067526236 0.058194648 0.57189995 7.003949e-039
0.074060604 0.055608846 0.57286274 6.8195563e-039
-0.022370704 0.063634261 0.57768565 1.0604646e-038
-0.015785446 0.065954812 0.57259715 1.0880154e-038
-0.0094999997 0.068500005 0.56999999 1.0787235e-038
0.05583537 0.06628713 0.57363629 7.374179e-039
0.064498402 0.063071482 0.57517385 7.0972278e-039
0.07320144 0.061097555 0.57835716 7.2812701e-039
-0.014041333 0.074757338 0.57598495 1.0327338e-038
-0.008219786 0.074641228 0.57107419 9.9578399e-039
0.049630262 0.071188152 0.5715 6.2819776e-039
0.053914707 0.072097667 0.57590479 5.7204366e-039
-0.17107607 0.11523496 0.57871431 3.4094194e-039
-0.16504896 0.11510312 0.57362282 8.2921556e-039
-0.1548184 0.11267764 0.57401413 1.3175622e-038
-0.14580166 0.11289424 0.57385713 1.3452569e-038
-0.13454118 0.11297502 0.57331032 1.3728796e-038
-0.12473984 0.1130385 0.57377779 1.4005378e-038
-0.11576512 0.11308999 0.57752943 1.400466e-038
-0.10836072 0.11335357 0.57764286 1.2991584e-038
-0.16914868 0.1206057 0.57050002 2.3052411e-039
0.039280701 0.12837458 0.57166666 7.5538549e-039
0.046013795 0.12754317 0.57349992 7.7378888e-039
0.05313183 0.12755057 0.57428944 8.0144729e-039
0.066060796 0.12649536 0.57621211 8.2903382e-039
0.074725002 0.12554334 0.57405996 8.9353474e-039
0.085331693 0.12658434 0.5747391 1.0503029e-038
0.095200397 0.12609428 0.57362729 1.1425348e-038
0.10428564 0.12586772 0.57278264 1.1886325e-038
0.11704016 0.12648603 0.57281476 1.2440215e-038
0.12493352 0.12689148 0.57442105 1.2440213e-038
0.1351763 0.12700902 0.5751273 1.253205e-038
0.14441179 0.12823096 0.57551014 1.280828e-038
0.15514372 0.12784654 0.57597131 1.2808639e-038
0.16177551 0.12860754 0.57286668 1.2809004e-038
