# .PCD v0.7 - Point Cloud Data file format
VERSION 0.7
FIELDS x y z rgb
SIZE 4 4 4 4
TYPE F F F F
COUNT 1 1 1 1
WIDTH 959
HEIGHT 1
VIEWPOINT 0 0 0 1 0 0 0
POINTS 959
DATA ascii
-0.09572684 0.14385179 0.50245917 8.8424273e-039
-0.085307233 0.14076726 0.50241667 1.2253657e-038
-0.074630946 0.14081022 0.50277781 1.2345121e-038
-0.066030174 0.1405668 0.50216669 1.2621712e-038
-0.054492619 0.14093207 0.50446141 1.252951e-038
-0.045483958 0.14081217 0.50497359 1.2528431e-038
-0.03485553 0.14077212 0.50384855 1.2897932e-038
-0.024498025 0.14124244 0.50335294 1.2529869e-038
-0.01479301 0.14138292 0.50260013 1.271462e-038
-0.0045731273 0.1420145 0.50447607 1.2714261e-038
0.0046376819 0.14171883 0.5038591 1.262243e-038
0.015077081 0.1422288 0.50314093 1.2899377e-038
0.025181847 0.14250176 0.50384504 1.2991934e-038
0.035420612 0.14280149 0.50462496 1.3084128e-038
0.04467776 0.14289208 0.50520778 1.3084494e-038
0.054707266 0.14340574 0.50492066 1.299266e-038
0.064484976 0.14319754 0.50250012 1.3084502e-038
0.075847663 0.14351703 0.50379044 1.3177416e-038
0.08555755 0.14446466 0.50255227 1.3085224e-038
0.095045976 0.14574297 0.50509721 1.1979241e-038
0.10268755 0.14687428 0.50716656 1.0412644e-038
-0.11028334 0.15136053 0.509 4.9716724e-039
-0.10452977 0.15452249 0.50511241 4.144088e-039
-0.097588003 0.15503336 0.50137717 4.880567e-039
0.096077867 0.15475422 0.50164366 7.5556682e-039
0.10405599 0.15513647 0.50637645 7.2794414e-039
-0.10104123 0.16045994 0.50300002 1.2932822e-039
-0.097776614 0.16051461 0.5013333 1.8446469e-039
0.096294679 0.16167739 0.50140744 6.7262663e-039
0.10520516 0.16157463 0.50692856 5.6206516e-039
-0.033411898 -0.071664922 0.51871431 1.4016241e-038
-0.025279073 -0.073077135 0.5175944 1.4476856e-038
-0.014689489 -0.072638407 0.51758456 1.4846002e-038
-0.0050975857 -0.072457664 0.51757371 1.5030393e-038
0.0038263802 -0.071386687 0.5185926 1.484528e-038
0.010926316 -0.07056579 0.51899999 1.4753799e-038
-0.043126762 -0.063781463 0.5178436 1.3186127e-038
-0.034985639 -0.064987756 0.51615632 1.3370873e-038
-0.024814242 -0.064971261 0.51431817 1.3831127e-038
-0.014891136 -0.064989425 0.51447254 1.4016238e-038
-0.0049673603 -0.06505356 0.51497251 1.4108434e-038
0.0050977073 -0.064985812 0.51680297 1.4383943e-038
0.013697558 -0.06378036 0.51813501 1.3647803e-038
-0.051873468 -0.0531944 0.51858068 8.5770606e-039
-0.044801321 -0.05476404 0.51626617 1.2263081e-038
-0.034566924 -0.055203665 0.51342261 1.2909172e-038
-0.024691282 -0.055225261 0.51181859 1.2818058e-038
-0.014819567 -0.055243917 0.5119921 1.2910251e-038
-0.0049438644 -0.05528298 0.51233917 1.3002089e-038
0.0049270191 -0.054826856 0.51418692 1.3002088e-038
0.014771276 -0.054749146 0.51690483 1.2448192e-038
0.020942101 -0.051444735 0.51899999 1.1710632e-038
-0.053264398 -0.04481766 0.51762468 1.1434057e-038
-0.044646144 -0.044642862 0.51405776 1.0144391e-038
-0.034860406 -0.045375377 0.51143521 1.0143306e-038
-0.024849337 -0.045327809 0.51052451 1.0328053e-038
-0.014774634 -0.045437373 0.5106554 1.0420246e-038
-0.004791629 -0.045383718 0.51103467 1.0880504e-038
0.004957248 -0.044748213 0.51339686 1.0696478e-038
0.014959242 -0.044857949 0.51656169 1.0973064e-038
0.021007141 -0.046892103 0.51899999 1.1249292e-038
-0.053373683 -0.035099715 0.51695234 9.4975834e-039
-0.045013014 -0.034655716 0.51309103 9.2205873e-039
-0.03497608 -0.034834515 0.51108646 9.2209727e-039
-0.024589365 -0.034619391 0.51060355 9.9585602e-039
-0.014859453 -0.034547538 0.5105204 1.0696488e-038
-0.0049316697 -0.034987211 0.5113793 1.0143314e-038
0.0048979609 -0.03479629 0.51391876 9.5901406e-039
0.013918297 -0.034880616 0.51728427 9.1295169e-039
-0.052254196 -0.025443101 0.51815081 8.575274e-039
-0.044783924 -0.024763297 0.51473916 8.2986815e-039
-0.034720406 -0.024798281 0.51273191 8.6671025e-039
-0.024707705 -0.024702726 0.51213264 9.2206392e-039
-0.014820522 -0.024696566 0.51198381 9.3128306e-039
-0.0049526962 -0.024778966 0.5136776 9.0369654e-039
0.0049880752 -0.024910139 0.51640463 9.0362465e-039
0.013094921 -0.026453091 0.51782751 9.4972275e-039
-0.051328454 -0.015431082 0.51843327 8.7607372e-039
-0.044841994 -0.014944201 0.51632172 9.0369668e-039
-0.034764856 -0.014894424 0.51467746 9.4979463e-039
-0.024812175 -0.014885513 0.51432216 9.2206406e-039
-0.014913717 -0.014908151 0.5152393 8.5752698e-039
-0.0054258779 -0.015766 0.51668352 8.3905184e-039
0.0032586989 -0.017926924 0.51813889 8.4823539e-039
-0.050534211 -0.0095605263 0.51899999 7.8373348e-039
-0.043959863 -0.0062255361 0.51767886 7.745142e-039
-0.034896508 -0.0049834573 0.51661116 8.3901498e-039
-0.024886956 -0.0049748374 0.51592517 9.6819733e-039
-0.014969588 -0.0049899537 0.51717305 1.0050393e-038
-0.0088707255 -0.0051553729 0.51862502 1.0603934e-038
-0.033886343 0.0017023809 0.51819998 7.0065007e-039
-0.025615118 0.0026833913 0.51806647 7.7444259e-039
-0.01604775 0.0019009671 0.51817942 8.2057628e-039
0.12346566 0.12281679 0.51828575 1.1163626e-038
-0.12103496 0.1385951 0.51899999 7.3676658e-039
-0.11440852 0.13737403 0.51604545 9.7647368e-039
-0.10520379 0.13667113 0.51403666 1.1791956e-038
-0.094988585 0.13611409 0.51430547 1.2529517e-038
-0.085152738 0.13677695 0.51420295 1.2713905e-038
-0.07483723 0.13643853 0.51513845 1.2529876e-038
-0.065260448 0.13686383 0.51402903 1.2713542e-038
-0.055517808 0.1366988 0.51387686 1.2713184e-038
-0.044732224 0.13746831 0.51464278 1.2620981e-038
-0.035087228 0.13766032 0.51429874 1.2805739e-038
-0.024604907 0.13835788 0.51447457 1.2805735e-038
-0.014600698 0.13811909 0.51495308 1.271426e-038
-0.0050085029 0.13848194 0.51392305 1.2714621e-038
0.004863434 0.13824293 0.51324064 1.2345483e-038
0.01466665 0.13818276 0.51558185 1.2252922e-038
0.02523198 0.13853973 0.51712495 1.2991574e-038
0.034099665 0.13852528 0.51414269 1.3176687e-038
0.045290288 0.13907574 0.51558065 1.3084491e-038
0.054953098 0.13904785 0.51634377 1.3084853e-038
0.064695485 0.13906164 0.51665002 1.3269245e-038
0.075766206 0.13923159 0.51643485 1.3454004e-038
0.084590793 0.13920109 0.51775002 1.2716432e-038
0.099385962 0.1395921 0.51499999 1.2807913e-038
0.10074122 0.1395921 0.51499999 1.2438769e-038
-0.12172203 0.14582753 0.51782048 5.3404535e-039
-0.11512376 0.14490713 0.51383013 6.0769326e-039
-0.10870765 0.14151089 0.51028579 7.7360868e-039
-0.038075436 0.14020936 0.51066661 1.2806455e-038
-0.020131579 0.14002632 0.50999999 1.2620975e-038
-0.015304512 0.14019676 0.51085716 1.2714264e-038
-0.0045571215 0.14048745 0.5105294 1.253023e-038
0.0065862159 0.14023259 0.51028568 1.2622791e-038
0.015313103 0.14069183 0.51190317 1.2899369e-038
0.024327148 0.14095367 0.51311111 1.2992294e-038
0.034675173 0.1404864 0.51070005 1.2992656e-038
0.044081051 0.14107567 0.51426667 1.2992659e-038
0.056038961 0.14121033 0.51197821 1.3084135e-038
0.065192007 0.14159669 0.51141059 1.3084858e-038
0.074767575 0.14125644 0.51255548 1.3361445e-038
0.085062839 0.14176404 0.51307458 1.290083e-038
0.095265992 0.1414869 0.51355922 1.2715721e-038
0.10589597 0.14317195 0.51341778 1.1978875e-038
0.11436188 0.14577562 0.51569384 9.951307e-039
0.12064474 0.14932632 0.51899999 7.8311817e-039
-0.12215743 0.1516462 0.51666671 2.8544436e-039
-0.11483382 0.15344575 0.51269567 3.223582e-039
0.10932589 0.15480095 0.51089478 7.3716343e-039
0.11487495 0.15469873 0.51402926 7.0950516e-039
0.12230271 0.15602693 0.5177111 6.266021e-039
0.10965899 0.16113092 0.51024997 5.8979643e-039
0.11303159 0.16047485 0.51244444 6.0816241e-039
-0.032055788 -0.090589479 0.52960002 1.5582488e-038
-0.025120873 -0.091437154 0.52931035 1.5860873e-038
-0.015305714 -0.091384552 0.52881819 1.5768674e-038
-0.0057923598 -0.091432147 0.52909684 1.5952708e-038
0.0027894739 -0.090657897 0.52999997 1.5767597e-038
-0.051380701 -0.080741055 0.52960002 1.4569418e-038
-0.044151347 -0.083240591 0.52763152 1.4661258e-038
-0.034893472 -0.084873572 0.52595085 1.5030034e-038
-0.025314014 -0.084842727 0.52467328 1.5214784e-038
-0.015119984 -0.085029684 0.52448517 1.5399176e-038
-0.004970917 -0.084986337 0.52474755 1.5675763e-038
0.0049944432 -0.084863156 0.52644867 1.5676121e-038
0.014651053 -0.084078774 0.52789867 1.5675401e-038
0.023562241 -0.081283443 0.52950001 1.5214423e-038
-0.061310966 -0.071064465 0.52950001 1.2725145e-038
-0.054442838 -0.074066497 0.52777904 1.3370515e-038
-0.045091212 -0.075153872 0.52338803 1.4016241e-038
-0.035754185 -0.075978674 0.5210731 1.4200274e-038
-0.024246935 -0.078068577 0.52059531 1.4938193e-038
-0.015541734 -0.077929452 0.52053714 1.5122589e-038
-0.0050724475 -0.077724993 0.52066076 1.5030393e-038
0.0054180822 -0.076069996 0.52143371 1.5030389e-038
0.015331358 -0.075254381 0.52349538 1.4661246e-038
0.024944203 -0.074824341 0.52649015 1.4753443e-038
0.033110768 -0.073826693 0.52920949 1.4292821e-038
-0.062263928 -0.064071178 0.52865785 1.2080497e-038
-0.055145368 -0.065121636 0.52439415 1.2540757e-038
-0.047130056 -0.066335812 0.5208236 1.3001372e-038
0.017021554 -0.067042999 0.52056819 1.3371571e-038
0.025370529 -0.064900309 0.52344424 1.2448156e-038
0.034969322 -0.064943619 0.5279603 1.2171224e-038
0.040912282 -0.061833333 0.52999997 1.1987577e-038
-0.063734338 -0.054668624 0.52641195 9.7748864e-039
-0.05587263 -0.05587073 0.5214265 1.1249649e-038
-0.0497193 -0.059754387 0.51999998 1.2634745e-038
0.019614035 -0.057929825 0.51999998 1.2263409e-038
0.025374252 -0.055212613 0.5219816 1.1341472e-038
0.035095911 -0.05494298 0.52632749 1.1987577e-038
0.041527592 -0.054248165 0.52939385 1.1803189e-038
-0.065132074 -0.044854194 0.52644682 1.0143317e-038
-0.058541764 -0.045467049 0.5204879 1.0880885e-038
0.025621967 -0.044949822 0.52140933 1.1157456e-038
0.035136934 -0.044826031 0.52634853 1.1065621e-038
0.041545775 -0.045997053 0.52935296 1.1250014e-038
-0.070201755 -0.037657894 0.52999997 8.5767145e-039
-0.06499505 -0.035104688 0.52594733 8.5756341e-039
-0.058675729 -0.034736034 0.52048659 8.6689073e-039
0.01896036 -0.035355564 0.52034628 8.8529329e-039
0.025186107 -0.035249136 0.52194202 9.3135481e-039
0.035120286 -0.034910373 0.52740192 8.9447628e-039
0.040416844 -0.03762842 0.52960002 8.5770536e-039
-0.063821763 -0.025471982 0.52658761 8.3908813e-039
-0.057194322 -0.02496393 0.52118033 8.3908813e-039
0.016862817 -0.023802213 0.52169842 9.2209965e-039
0.025065904 -0.025400339 0.52439988 9.2209979e-039
0.033130657 -0.026268657 0.528732 9.221358e-039
-0.06243981 -0.015260383 0.52723634 8.5756285e-039
-0.056183167 -0.014951229 0.52204996 8.6678269e-039
-0.0031152938 -0.011570443 0.5203914 8.9451271e-039
0.0057725911 -0.013835583 0.5212 8.5749082e-039
0.015163392 -0.015149751 0.52357835 8.4827112e-039
0.024233684 -0.016070673 0.52750587 8.5756285e-039
0.030557018 -0.019225087 0.52939999 9.0358878e-039
-0.061815098 -0.0078744693 0.52815789 7.8369817e-039
-0.054982889 -0.0051456224 0.52404761 6.914661e-039
-0.047173027 -0.0025633606 0.52053851 6.9150128e-039
-0.0040625087 -0.0049868701 0.52090728 1.0051116e-038
0.0050625633 -0.0050536306 0.52413213 9.7741745e-039
0.015108683 -0.0053186137 0.52810419 9.4053906e-039
0.021893654 -0.0078983996 0.52970582 8.6681829e-039
-0.053004228 0.0017517859 0.52703577 4.7916224e-039
-0.044884603 0.0049248012 0.52457553 6.4522423e-039
-0.035619497 0.0063447575 0.52125865 7.6525876e-039
-0.024498446 0.007313862 0.52052474 8.1135658e-039
-0.014579364 0.0065130186 0.521061 7.9291759e-039
-0.0050429106 0.0050535509 0.52313185 8.8511308e-039
0.005088632 0.0050885146 0.52677709 9.5894189e-039
0.01243047 0.0039521442 0.52913326 9.6826935e-039
-0.044208519 0.012690648 0.52835834 7.2845239e-039
-0.034685906 0.014986192 0.52527875 6.8224626e-039
-0.025204534 0.015113086 0.52405894 7.2830806e-039
-0.015214751 0.01522937 0.52571058 7.9291689e-039
-0.0050877403 0.015274067 0.52738023 8.5745453e-039
0.0038810365 0.014443608 0.52909487 9.1284393e-039
0.010692983 0.011157895 0.52999997 9.5904965e-039
-0.03147351 0.021539649 0.52919996 7.5596703e-039
-0.024600822 0.023063209 0.52917993 7.7444175e-039
-0.015162711 0.024928318 0.52920717 9.1277163e-039
-0.0051836562 0.024995115 0.52927738 1.014331e-038
0.001540351 0.022910431 0.5295788 1.0051113e-038
-0.013376706 0.03155604 0.52988875 8.2054041e-039
-0.0075303512 0.030897366 0.52993321 8.4812679e-039
0.12874202 0.10907781 0.52869999 1.7062701e-038
0.1354772 0.10686543 0.52784944 1.7153821e-038
0.1442921 0.1047694 0.5291217 1.3465261e-038
0.15133205 0.10408279 0.52807689 1.2810088e-038
0.11684579 0.11815529 0.52554345 1.7983937e-038
0.12526262 0.11530614 0.52389699 1.6785399e-038
0.13396531 0.1144188 0.52451003 1.3005011e-038
0.14134583 0.11212466 0.5272941 9.3160886e-039
-0.12506141 0.12971053 0.52999997 1.2161097e-038
-0.067877188 0.12971053 0.52999997 1.3080521e-038
0.095347993 0.12800051 0.52586663 1.9642732e-038
0.10483513 0.12653036 0.52426326 1.8444919e-038
0.11476602 0.1247553 0.52196002 1.5587209e-038
0.1239572 0.12262116 0.52129817 1.3098286e-038
0.13125019 0.12177593 0.52255559 8.7600338e-039
-0.13164394 0.13647018 0.52858329 7.1839906e-039
-0.12509529 0.13460833 0.52565819 9.5796308e-039
-0.1152593 0.13296966 0.52545047 1.2160734e-038
-0.10503241 0.13296817 0.52501416 1.2252929e-038
-0.094898894 0.13289577 0.52576476 1.2621352e-038
-0.08523231 0.13340384 0.52460808 1.2713544e-038
-0.074455671 0.13327236 0.52565747 1.2622066e-038
-0.065322436 0.13348046 0.52602339 1.2805376e-038
-0.054572105 0.13402911 0.52486837 1.2713542e-038
-0.045344193 0.13480073 0.52396387 1.2805375e-038
-0.035067234 0.13437422 0.52546567 1.2621344e-038
-0.025175588 0.13500862 0.5251798 1.2529511e-038
-0.015440472 0.13475224 0.5255999 1.2068892e-038
-0.0052504423 0.13586257 0.52507228 1.234584e-038
0.0055360231 0.13571946 0.52446753 1.1791585e-038
0.015278296 0.13521542 0.52487832 1.1976332e-038
0.024543587 0.1356924 0.5232414 1.2714989e-038
0.035517368 0.13635632 0.52376807 1.2992657e-038
0.045443643 0.13677347 0.52457738 1.3176694e-038
0.054879431 0.13683347 0.52568668 1.3176691e-038
0.065203771 0.13581513 0.52663416 1.1793765e-038
0.073238835 0.13806459 0.52157694 1.345364e-038
0.083857894 0.13864751 0.5205 1.1978871e-038
0.094728179 0.13366424 0.52167499 1.4474693e-038
0.10643362 0.13661623 0.52366173 7.4631124e-039
0.1146291 0.13693041 0.52467579 7.7382448e-039
0.12399222 0.13823549 0.52737772 8.567281e-039
0.13064036 0.13993859 0.52999997 9.121189e-039
-0.13239098 0.14527404 0.52719158 4.4206637e-039
-0.12655307 0.14436716 0.52257812 5.4330093e-039
0.051940352 0.14019297 0.52399999 1.3085212e-038
0.08985965 0.14049123 0.51999998 1.2623161e-038
0.093204148 0.14066157 0.52109092 1.2715717e-038
0.1054808 0.1401847 0.52055556 1.1793399e-038
0.11618844 0.14131515 0.52117151 1.1609727e-038
0.12503977 0.14458553 0.52369159 8.9375124e-039
0.13253777 0.14599296 0.52897358 7.6478568e-039
-0.13063596 0.15089911 0.52499998 8.2724674e-040
-0.12748431 0.15090849 0.52255553 2.3020097e-039
0.12635346 0.1528009 0.52311319 6.9110191e-039
0.13366325 0.15431789 0.529109 6.1738282e-039
-0.024523331 -0.10044632 0.53759998 1.6505529e-038
-0.015970351 -0.10063316 0.53859997 1.6414054e-038
-0.043670606 -0.092661142 0.53504652 1.5491014e-038
-0.035030134 -0.094993062 0.53489006 1.5952352e-038
-0.024811195 -0.09644191 0.53395528 1.6045268e-038
-0.014986957 -0.096480958 0.53390014 1.6321492e-038
-0.0048379512 -0.096414506 0.53420597 1.6413691e-038
0.0049436954 -0.094715551 0.53445327 1.6229295e-038
0.014816827 -0.092617773 0.53493887 1.6321133e-038
0.023570303 -0.091801226 0.53770363 1.6321849e-038
-0.061246254 -0.082761079 0.53745461 1.3832937e-038
-0.054962575 -0.084397428 0.53511256 1.4477225e-038
-0.045974679 -0.087638631 0.53236115 1.4938562e-038
-0.039126314 -0.089897372 0.53100002 1.5306623e-038
0.0082289474 -0.089897372 0.53100002 1.5675405e-038
0.016498607 -0.088519551 0.53194118 1.6137102e-038
0.025229441 -0.085992381 0.53356415 1.5767955e-038
0.034170754 -0.083737709 0.53534853 1.567576e-038
0.041166343 -0.081271604 0.537875 1.5122587e-038
-0.070921049 -0.070448242 0.53899997 1.2264536e-038
-0.064308584 -0.074156903 0.53549093 1.2909899e-038
-0.05724591 -0.078452438 0.53200001 1.37393e-038
0.037244499 -0.076444201 0.53302056 1.4477573e-038
0.043904461 -0.074236758 0.53603017 1.3924402e-038
-0.070798784 -0.0643664 0.53615385 1.21727e-038
-0.066964731 -0.065336868 0.53368419 1.2172699e-038
0.039592106 -0.068471052 0.53100002 1.3002089e-038
0.045178808 -0.065232009 0.53397995 1.2356358e-038
0.050982203 -0.062191725 0.5388571 1.1802827e-038
-0.072955616 -0.054492805 0.53551865 1.0145114e-038
-0.068972483 -0.056084335 0.53235 1.0236935e-038
0.046337299 -0.055360164 0.53306973 1.1342571e-038
0.050780296 -0.055619113 0.537 1.1249656e-038
-0.074209243 -0.044733543 0.53503656 1.014332e-038
-0.069402635 -0.049373686 0.53100002 1.097416e-038
0.04638933 -0.044638611 0.53452635 1.0880872e-038
0.050473023 -0.046222806 0.53775001 1.0973425e-038
-0.074132025 -0.035307385 0.53518414 8.3919617e-039
-0.069402635 -0.030742105 0.53100002 8.3898023e-039
0.039666668 -0.0308 0.53200001 9.3135593e-039
0.044848144 -0.035099141 0.53520203 8.5759802e-039
-0.072984256 -0.02544608 0.53649998 8.6678297e-039
-0.068617858 -0.023274723 0.53266662 8.2990458e-039
0.036853585 -0.023466816 0.53315264 9.1295198e-039
0.042998504 -0.025819747 0.53630358 9.3131963e-039
-0.07204695 -0.015335117 0.53790617 8.3905184e-039
-0.067718305 -0.015179245 0.53331918 8.5752726e-039
0.027817545 -0.012646315 0.53239995 8.4834315e-039
0.034608454 -0.015117748 0.53471446 8.7600184e-039
0.040796731 -0.017204678 0.53786671 8.943688e-039
-0.070951417 -0.0080188923 0.53784621 7.2834351e-039
-0.065335475 -0.0048464169 0.53494442 6.9139338e-039
-0.059155263 -0.00093157892 0.53100002 6.0827326e-039
0.018398684 -0.00069868413 0.53100002 9.4979491e-039
0.025766309 -0.0045571751 0.53395808 9.1288023e-039
0.032215867 -0.0071063722 0.53638232 8.8525741e-039
-0.060596049 0.00093991222 0.53550005 5.7118088e-039
-0.058924779 0.0011739035 0.53525007 5.4355709e-039
-0.048442103 0.0097815786 0.53100002 7.3763636e-039
0.016647475 0.0059507689 0.53283083 9.6816159e-039
0.023851478 0.004370125 0.53605616 9.5897818e-039
-0.04342832 0.016711865 0.53399998 7.4689278e-039
-0.038966663 0.018900439 0.53200001 7.1008488e-039
0.0080230338 0.016871987 0.53187096 9.5897818e-039
0.014904618 0.014914223 0.53494638 9.6819747e-039
0.020940024 0.011761951 0.53637499 9.6819747e-039
-0.041421346 0.022393975 0.537 8.1150133e-039
-0.035152651 0.025171503 0.53505486 7.5603934e-039
-0.025438663 0.027267579 0.53169233 7.8362558e-039
-0.019097369 0.028878946 0.53100002 8.2972311e-039
-0.00093157892 0.029344736 0.53100002 8.4838e-039
0.0059967712 0.025362005 0.53304148 9.866003e-039
0.013171999 0.023429375 0.53729403 9.6816117e-039
-0.032195911 0.032668348 0.53841662 8.2975983e-039
-0.024697499 0.034814909 0.53513503 8.1132056e-039
-0.015452866 0.03615161 0.53300023 8.0210086e-039
-0.0047986181 0.035640784 0.53308517 8.2975913e-039
0.0043719183 0.034075335 0.53513801 8.6667325e-039
0.010874561 0.030732457 0.53899997 9.3117586e-039
-0.023575196 0.041980457 0.53805548 7.9284514e-039
-0.015266553 0.043044299 0.53635186 7.927727e-039
-0.0057690372 0.04260334 0.53593624 7.7436958e-039
0.0019314992 0.040808056 0.53809094 7.651489e-039
0.13950057 0.099643283 0.53666669 1.8628224e-038
0.14549248 0.097085893 0.53566653 1.8628586e-038
0.15070614 0.095190346 0.53633332 1.9730247e-038
0.12775591 0.10804367 0.53506666 1.7246736e-038
0.13531975 0.10346069 0.53466064 1.7522961e-038
0.1448133 0.10230536 0.53145462 1.5124429e-038
0.10871154 0.11926799 0.53883332 1.9366868e-038
0.11561242 0.11708354 0.53578258 1.8629306e-038
0.12322897 0.11301161 0.53594869 1.7799188e-038
-0.13176265 0.12902474 0.53799999 1.1883424e-038
-0.12520331 0.12936787 0.53568 1.2252934e-038
-0.11418828 0.12953468 0.53537506 1.2528794e-038
-0.105092 0.12907104 0.53541172 1.2436601e-038
-0.095164172 0.1293859 0.53734988 1.252951e-038
-0.084718645 0.12927181 0.53691304 1.2805383e-038
-0.076013707 0.12957679 0.53570837 1.3082326e-038
-0.065063283 0.12973209 0.53585714 1.2713898e-038
-0.055867426 0.12974067 0.53637499 1.262171e-038
0.058864348 0.12551893 0.53735298 1.2626799e-038
0.065316536 0.12588799 0.53678572 1.8625685e-038
0.072575875 0.12671229 0.53899997 2.0563968e-038
0.095114902 0.12497612 0.53476673 2.0103714e-038
0.10391071 0.12350073 0.53717244 1.9735295e-038
0.11179079 0.12025044 0.53549999 1.8998093e-038
0.1290763 0.1290763 0.53899997 7.5665241e-039
-0.14159027 0.13711683 0.53794736 6.1694953e-039
-0.13575001 0.1340175 0.5345 8.0126723e-039
-0.12565623 0.13024962 0.53477776 1.1975987e-038
-0.11520289 0.13038471 0.53414291 1.2436602e-038
-0.1050842 0.13077782 0.53245455 1.24366e-038
-0.09518484 0.13068646 0.53599995 1.2621348e-038
-0.084801726 0.13120447 0.53425723 1.2897213e-038
-0.077078901 0.13136847 0.53223813 1.2990488e-038
-0.063226081 0.13095865 0.53460872 1.271354e-038
-0.054605056 0.13126341 0.5349111 1.2805381e-038
-0.044830009 0.13152187 0.53544819 1.2344764e-038
-0.035254475 0.13189004 0.53300011 1.1975979e-038
-0.025329726 0.13215408 0.53488886 1.1607914e-038
-0.014909255 0.13241267 0.53435004 1.1330251e-038
-0.0049002394 0.13285069 0.53431821 1.1422804e-038
0.0042391992 0.13289066 0.53439587 1.1514998e-038
0.015518114 0.13367637 0.53435004 1.1883782e-038
0.025461292 0.13447161 0.53641665 1.2161093e-038
0.035184823 0.13405874 0.53385115 1.2439126e-038
0.044189733 0.13333265 0.53520876 1.2716073e-038
0.055549104 0.13345513 0.5337556 1.2346566e-038
0.060796604 0.1336126 0.53212506 1.1333507e-038
0.11559609 0.13571708 0.53306901 5.5295602e-039
0.12598388 0.13569896 0.53514272 6.7237453e-039
0.13346018 0.1376473 0.53532577 8.5683698e-039
-0.14257912 0.14399667 0.53685355 3.8678696e-039
-0.13733527 0.14365493 0.53256422 4.4203077e-039
0.13688472 0.14439887 0.53446287 7.3712741e-039
0.14146742 0.14700264 0.53793335 6.726625e-039
0.13791615 0.15211491 0.53259999 6.5411645e-039
0.14159842 0.15064263 0.537 6.6344448e-039
-0.020695323 -0.11213801 0.54866666 1.4108071e-038
-0.017168382 -0.11283021 0.54848784 1.5212982e-038
-0.044073004 -0.10163593 0.54559082 1.6135307e-038
-0.034245513 -0.10286978 0.54472232 1.6137468e-038
-0.024453973 -0.10480161 0.54432732 1.6505888e-038
-0.014902893 -0.10539733 0.54455012 1.6598085e-038
-0.00498736 -0.10445181 0.54408228 1.6690277e-038
0.0047569214 -0.10416114 0.5451389 1.6598441e-038
0.014500401 -0.10330555 0.54649186 1.6505885e-038
0.022497728 -0.10195523 0.54777271 1.6321855e-038
-0.060826316 -0.090521052 0.546 1.5491014e-038
-0.053787466 -0.093595408 0.54354906 1.4938205e-038
-0.04621375 -0.097120635 0.54233336 1.5675765e-038
-0.036327925 -0.099662133 0.54016668 1.6228945e-038
0.0071130702 -0.098996922 0.54049999 1.6689909e-038
0.015555217 -0.097826347 0.54163164 1.6321495e-038
0.025236256 -0.095354699 0.5417257 1.6413688e-038
0.03391159 -0.092632689 0.54210532 1.6230015e-038
-0.070792109 -0.080423683 0.54900002 1.3646754e-038
-0.065227963 -0.084494025 0.54611999 1.3923693e-038
-0.056981225 -0.088869646 0.54100001 1.4385391e-038
0.036757082 -0.088023618 0.54003704 1.5953426e-038
0.044720642 -0.084072091 0.54485464 1.5306621e-038
0.05088684 -0.080744736 0.54900002 1.5490643e-038
-0.072244599 -0.07305485 0.54484612 1.2633674e-038
-0.067506067 -0.077581584 0.54227275 1.3277966e-038
0.047700338 -0.07690873 0.54194444 1.4200994e-038
0.052436188 -0.073714688 0.54565912 1.3463426e-038
-0.075441502 -0.065007597 0.54431021 1.2264536e-038
0.054004058 -0.06616094 0.54472917 1.2171967e-038
-0.082102083 -0.053277701 0.54513788 1.1433339e-038
-0.078014724 -0.055532143 0.54202557 1.0973425e-038
0.054765344 -0.054780968 0.54600012 1.0881595e-038
-0.082985267 -0.044828534 0.54540735 9.6823376e-039
-0.078930877 -0.047301404 0.54140002 1.06043e-038
0.054365512 -0.044402137 0.54240882 1.0328419e-038
-0.083126679 -0.03515324 0.54559672 8.6674696e-039
-0.078627311 -0.033594847 0.54037499 8.3916016e-039
0.049641445 -0.033290792 0.54025 8.2075606e-039
0.053771198 -0.035447638 0.54380614 8.5756229e-039
-0.083093494 -0.024766084 0.54611099 9.497589e-039
-0.077657528 -0.024529746 0.54075575 9.4057563e-039
0.047204047 -0.024119167 0.54189372 9.1291624e-039
0.052276384 -0.025350401 0.54569989 9.4972261e-039
-0.08267317 -0.015526832 0.54654354 8.1139301e-039
-0.076902948 -0.014670889 0.54125011 8.0213743e-039
0.038516931 -0.010935351 0.54209995 8.7603799e-039
0.045254651 -0.014529313 0.54372525 8.8522168e-039
0.051479243 -0.017204691 0.54794991 8.8525713e-039
-0.080807604 -0.0075365491 0.54833335 5.623209e-039
-0.075074628 -0.0060508624 0.54335004 5.899063e-039
-0.068469748 -0.0014228948 0.5413 5.161142e-039
0.036323316 -0.004045309 0.54276395 9.1291638e-039
0.042958688 -0.0051107802 0.54643649 9.1291652e-039
-0.070792109 0.00096315792 0.54900002 6.4536941e-039
-0.064552046 0.0045346599 0.54669744 6.7302726e-039
-0.056130547 0.0063481475 0.54446769 7.0994138e-039
0.02806678 0.0073024565 0.54046661 9.4979449e-039
0.034979813 0.0041427948 0.54464298 9.4975862e-039
0.041761722 0.0017063796 0.54836363 9.4968603e-039
-0.070792109 0.015410526 0.54900002 9.1284393e-039
-0.064662896 0.014978684 0.54784971 9.0362451e-039
-0.055406626 0.015054559 0.5461244 8.5752656e-039
-0.04733878 0.017764341 0.54221743 8.8522154e-039
0.019042104 0.018663159 0.54000002 9.7741703e-039
0.025089033 0.015449544 0.54211849 9.5894203e-039
0.031978391 0.013682378 0.5462727 9.5897762e-039
-0.064596988 0.024816576 0.5469656 8.7596582e-039
-0.055122405 0.024926329 0.54642785 8.7589366e-039
-0.045540918 0.025404915 0.54390222 8.7600156e-039
-0.038696345 0.029219737 0.54016668 8.482714e-039
0.016764995 0.026255421 0.54092759 9.4050234e-039
0.023879442 0.024285847 0.54530668 9.4046661e-039
0.030339474 0.020707896 0.54900002 9.4979421e-039
-0.071493976 0.037700221 0.54837495 9.5901378e-039
-0.065149933 0.035179753 0.54744488 9.0369668e-039
-0.055191871 0.03506178 0.54752535 8.8518511e-039
-0.045092396 0.035033908 0.54634899 8.7589366e-039
-0.036067992 0.035915244 0.54205275 8.3897911e-039
-0.029842107 0.038842104 0.54000002 8.2972381e-039
0.008014475 0.037511311 0.54059994 8.8507651e-039
0.015151484 0.035151102 0.54475498 9.4961387e-039
0.021507127 0.032321054 0.54787499 9.6805327e-039
-0.071855806 0.04484801 0.54802942 7.7447678e-039
-0.065238774 0.044948667 0.54619431 7.928806e-039
-0.055316016 0.043968536 0.54609537 8.1139203e-039
-0.045914229 0.042995911 0.54778004 8.4827014e-039
-0.034666132 0.04446229 0.5450815 8.2050397e-039
-0.025891718 0.045947444 0.54126489 7.8358957e-039
-0.014600153 0.047757838 0.54037517 7.5585717e-039
-0.0047766138 0.047111899 0.54205668 7.9280843e-039
0.0049093855 0.045077447 0.54414457 8.2043124e-039
0.01240191 0.043255124 0.54741031 8.7589296e-039
-0.071384214 0.051435746 0.54799992 4.5157488e-039
-0.068616085 0.051236168 0.54699999 8.295792e-039
-0.031194817 0.051757976 0.54863632 8.5749012e-039
-0.024892248 0.052568346 0.54701817 8.112484e-039
-0.015092906 0.052701458 0.5457018 7.3738175e-039
-0.00517216 0.052692037 0.5466491 7.4660075e-039
0.0020563796 0.051198959 0.54827273 8.6656535e-039
0.13635693 0.097342916 0.54513901 1.7891744e-038
0.14264679 0.09452489 0.54480857 1.9274674e-038
0.12565142 0.10642885 0.54410821 1.779955e-038
0.13259085 0.10200517 0.54236597 1.7431126e-038
0.049217366 0.11914263 0.54900002 1.2904113e-038
0.054276027 0.11843572 0.54815626 1.7797371e-038
0.066577487 0.11984035 0.54866672 2.0196628e-038
0.071993358 0.11943797 0.54871428 2.0565048e-038
0.097700298 0.11967983 0.54866666 2.0288469e-038
0.10565118 0.1187055 0.54525006 1.9827852e-038
0.11510924 0.11440878 0.54419529 1.8905896e-038
0.12164493 0.11114705 0.54049999 1.7984302e-038
-0.14341173 0.1278705 0.54677773 9.6718223e-039
-0.13518856 0.12696959 0.54448575 1.1883793e-038
-0.12533878 0.12724696 0.5453434 1.2436964e-038
-0.11519931 0.12761413 0.54377598 1.2345126e-038
-0.10493134 0.127175 0.54462504 1.243696e-038
-0.09466546 0.12703231 0.54400015 1.2529511e-038
-0.085239895 0.12714337 0.54484618 1.2713185e-038
-0.075002387 0.12763754 0.54601556 1.2714265e-038
-0.065122627 0.12795748 0.54493654 1.2252926e-038
-0.055467788 0.12840195 0.54357439 1.1791943e-038
-0.045024402 0.12821712 0.54112208 1.096182e-038
-0.034486756 0.1289169 0.54571867 9.7636479e-039
-0.026612006 0.12897198 0.54531252 9.6718026e-039
-0.016726078 0.12916642 0.54481822 9.8565596e-039
-0.0058252504 0.12912387 0.54692852 9.7643584e-039
0.016960746 0.12905824 0.54224998 1.0777438e-038
0.026837582 0.12873517 0.54578942 1.0962911e-038
0.03354026 0.1287194 0.54530001 1.1239861e-038
0.047253255 0.1256026 0.54737496 7.0910859e-039
0.055229541 0.12494714 0.54550004 1.2812295e-038
0.065027721 0.1224872 0.54330564 2.0287381e-038
0.074624561 0.12390756 0.54351914 2.0472494e-038
0.085239984 0.12466615 0.54390258 2.03803e-038
0.094380982 0.12241981 0.54508209 2.0380661e-038
0.10333665 0.12172977 0.54138899 1.9919685e-038
0.13410527 0.12979473 0.546 6.2725412e-039
-0.15075164 0.13655362 0.54862499 5.4348142e-039
-0.14564858 0.13426189 0.54411274 6.4464452e-039
-0.1378421 0.13026315 0.54000002 1.0133155e-038
-0.1239557 0.13015395 0.54350001 1.2436242e-038
-0.073330991 0.13064034 0.54244447 1.3173442e-038
-0.067303807 0.13034707 0.54166669 1.2804663e-038
-0.057315789 0.13026315 0.54000002 1.3265626e-038
-0.045631584 0.13026315 0.54000002 1.1791946e-038
-0.034097899 0.13134259 0.54271048 1.0961464e-038
-0.024721401 0.13072731 0.5419333 1.0592676e-038
-0.014815391 0.13172628 0.54350007 1.0593041e-038
-0.0045143608 0.13128842 0.54362798 1.0501203e-038
0.00083124998 0.13160361 0.54162502 1.0961828e-038
0.016222535 0.13161242 0.54106253 1.1146581e-038
0.025167942 0.13163866 0.54254907 1.1515361e-038
0.035393678 0.13196048 0.54464281 1.1885229e-038
0.045389012 0.13119465 0.54530549 1.1793025e-038
0.053778108 0.13205139 0.54328579 1.004204e-038
0.12662788 0.13401593 0.54051727 5.9865614e-039
0.1356429 0.13376227 0.54270935 7.5542277e-039
0.14377931 0.13561463 0.5453769 8.3843471e-039
-0.15114716 0.14151929 0.54875004 2.9473483e-039
-0.14728238 0.14173213 0.54336363 3.684549e-039
0.13973685 0.1411579 0.54000002 7.5560199e-039
0.14584453 0.14458373 0.5436902 6.8173857e-039
0.1505283 0.14619847 0.54825002 6.6329986e-039
0.14720713 0.15169922 0.54309535 5.8976014e-039
-0.033096023 -0.11224066 0.55486667 1.0969086e-038
-0.025662411 -0.11321074 0.55416977 1.3552012e-038
-0.012153179 -0.11238366 0.55462503 1.6597725e-038
-0.0073009804 -0.11250758 0.55464703 1.6783193e-038
0.0055450657 -0.11253933 0.55506253 1.6690636e-038
0.014005006 -0.11188227 0.55695832 1.6229657e-038
-0.042756904 -0.10681824 0.55469567 1.309139e-038
-0.035670105 -0.10737988 0.55213511 1.6135296e-038
-0.02646791 -0.10938546 0.55341661 1.6597725e-038
-0.0067543858 -0.10951755 0.55000001 1.6782835e-038
0.006679459 -0.10919846 0.55041671 1.6598435e-038
0.015633959 -0.1080985 0.55207139 1.6598436e-038
0.02591289 -0.10367041 0.55281818 1.6229659e-038
0.0332557 -0.1019164 0.5575 1.6045627e-038
-0.062126793 -0.092902564 0.55290914 1.1524434e-038
0.028543128 -0.098689914 0.55150002 1.6414049e-038
0.033558775 -0.09840966 0.55436838 1.6230013e-038
0.043301817 -0.092233084 0.55289644 1.6229657e-038
0.050499413 -0.091419302 0.55533332 1.6044905e-038
-0.074045539 -0.081329159 0.55408335 1.0415563e-038
0.04754607 -0.087170169 0.55086964 1.5676123e-038
0.052689102 -0.084947042 0.55220467 1.512331e-038
-0.075049914 -0.075817369 0.55299997 1.1432967e-038
-0.069956139 -0.076710522 0.55000001 1.3001735e-038
0.05458124 -0.077798098 0.55138457 1.4200997e-038
0.057631828 -0.063908353 0.55047506 1.1526601e-038
0.062117577 -0.063629292 0.55579996 1.1250371e-038
-0.08539474 -0.055 0.55000001 9.0329899e-039
0.058862407 -0.05508488 0.55066669 1.0789396e-038
0.062325433 -0.05458146 0.55445445 1.0697201e-038
-0.087002926 -0.043421049 0.55000001 8.7582065e-039
0.058674388 -0.047554974 0.5528 1.0144028e-038
0.061960682 -0.045443349 0.55300009 1.0512456e-038
-0.091439351 -0.034363739 0.55771428 8.757489e-039
-0.087914675 -0.033352911 0.55273676 8.7582121e-039
0.058127515 -0.034076113 0.55116129 8.3912302e-039
0.0615592 -0.035813577 0.55408686 8.5756159e-039
-0.091001533 -0.029355045 0.55775005 8.3887093e-039
-0.087819785 -0.026258469 0.55204356 8.4823525e-039
0.056636289 -0.026271565 0.55084211 9.0366095e-039
-0.086485729 -0.013824794 0.55119997 8.0217317e-039
0.049255703 -0.011107456 0.55050004 8.8529315e-039
0.054389898 -0.011599733 0.55606067 9.3135509e-039
0.062656306 -0.010717226 0.55763644 1.2725147e-038
-0.082658112 -0.0079638157 0.55024999 5.4391834e-039
-0.075563289 -0.0011869675 0.55728573 6.7310012e-039
0.047746934 -0.0043377187 0.55362862 9.4053948e-039
0.054592114 -0.0052256393 0.55658305 1.0328426e-038
0.062848173 -0.0078221587 0.55578268 1.0144751e-038
-0.07382568 0.00173 0.5583334 6.8235486e-039
-0.068521626 0.0054912283 0.55266672 6.8224696e-039
0.03702325 0.0083707599 0.55050004 9.4057493e-039
0.044939864 0.0051861322 0.55419183 9.2217168e-039
0.053916059 0.0018086209 0.55858612 8.6670969e-039
-0.072193973 0.018202867 0.55086672 8.9436936e-039
-0.069542602 0.018540101 0.55000001 9.2195616e-039
0.036541477 0.015635047 0.55277759 9.5897818e-039
0.04258078 0.013570055 0.55677277 9.4975862e-039
-0.073321991 0.025637461 0.55216974 8.4823469e-039
-0.069605261 0.025482457 0.55000007 8.8518553e-039
0.028203545 0.026964597 0.55164003 9.4968631e-039
0.033975132 0.02477867 0.55502748 9.8660058e-039
-0.07445088 0.034451835 0.55129826 8.7592953e-039
-0.069634505 0.030716375 0.55000001 9.4050346e-039
0.019316228 0.039114475 0.55050004 9.9574769e-039
0.025943181 0.035426069 0.55389291 9.9578413e-039
0.03219492 0.033522617 0.55728567 9.9589147e-039
-0.075521007 0.044606417 0.55021048 1.106419e-038
-0.054094262 0.048804082 0.55304992 3.4065327e-039
-0.044286616 0.047628589 0.55179238 7.1883612e-039
-0.0377924 0.048728075 0.55000007 8.8511294e-039
0.0082045319 0.049225584 0.55016667 8.6667297e-039
0.016362257 0.046212323 0.55171442 9.404299e-039
0.024138313 0.044353694 0.55664796 1.0049671e-038
-0.073145986 0.052187346 0.55014288 4.2326837e-039
-0.061409708 0.055052135 0.5575 6.6377014e-039
-0.055084821 0.055265322 0.55460036 8.0206428e-039
-0.04502251 0.055150434 0.55340415 8.943325e-039
-0.035253242 0.055524744 0.55134797 8.9436838e-039
-0.025238652 0.057808705 0.55171108 8.4816182e-039
-0.015029259 0.057979289 0.55268759 7.8344425e-039
-0.0043378617 0.057884283 0.55232561 7.3727343e-039
0.0051793759 0.055318974 0.5529874 8.3890568e-039
0.014270535 0.054097816 0.5552668 8.9429551e-039
0.021817423 0.052671183 0.55831814 9.5886944e-039
-0.061924782 0.062700801 0.55841666 7.5589304e-039
-0.054170664 0.063387789 0.55517751 6.9124876e-039
-0.044810992 0.064299583 0.5552752 7.2816289e-039
-0.035064772 0.064779453 0.55518907 8.0188282e-039
-0.025421889 0.064344607 0.55590111 8.2961395e-039
-0.015204621 0.06342569 0.55685472 8.2961479e-039
-0.0058397665 0.062631421 0.5575555 8.1113895e-039
0.0050963499 0.061303992 0.5576452 8.2961367e-039
0.011023246 0.060504392 0.55850005 8.8489658e-039
0.13888465 0.089167096 0.5575 1.7614438e-038
0.14238852 0.088106647 0.5567143 1.8169415e-038
0.12872154 0.098397166 0.55655557 1.7799551e-038
0.1345754 0.094067901 0.55412817 1.7431124e-038
0.14210936 0.09121725 0.55166668 1.899845e-038
0.11672979 0.10805347 0.55545461 1.88137e-038
0.12433518 0.10386007 0.55342251 1.8168332e-038
0.13001667 0.10005 0.551 1.7431133e-038
0.039718423 0.11670351 0.55900002 3.9550248e-039
0.045794033 0.11530969 0.55517226 1.2076532e-038
0.05492726 0.1144984 0.55350006 1.9365788e-038
0.064452991 0.1168335 0.55352777 2.0103716e-038
0.075414151 0.11819918 0.55495459 2.0472137e-038
0.085476391 0.11839172 0.55591673 2.0472497e-038
0.095283337 0.11727733 0.55491668 2.0564691e-038
0.10534677 0.11531392 0.55387926 2.0011883e-038
0.11308671 0.11201071 0.55343485 1.9090648e-038
-0.15339866 0.12636405 0.55612773 7.5520655e-039
-0.14539397 0.12439496 0.55368572 1.0961837e-038
-0.13498899 0.12380794 0.55492002 1.2252574e-038
-0.12447899 0.1233272 0.55400008 1.2436967e-038
-0.1149971 0.12382081 0.55417317 1.2436958e-038
-0.10509486 0.12403674 0.55462289 1.2804665e-038
-0.095965184 0.12445853 0.55426198 1.2529151e-038
-0.084969826 0.12404586 0.55538189 1.2344405e-038
-0.075098217 0.12491642 0.55293107 1.2068179e-038
-0.065426238 0.12562653 0.55475003 1.0962191e-038
-0.054917052 0.1266585 0.55428857 9.6714467e-039
-0.044832557 0.12816349 0.55710524 9.1182757e-039
-0.036022611 0.12690085 0.5545001 8.6583822e-039
-0.028856141 0.1275152 0.55133337 9.0260829e-039
-0.0039715171 0.12816335 0.55694121 9.1190016e-039
0.0053112349 0.12893781 0.55403841 9.7643612e-039
0.014606446 0.1290223 0.55395645 1.0132786e-038
0.023330946 0.12845676 0.55647993 1.0409015e-038
0.036610752 0.12852702 0.55530435 1.0778883e-038
0.044914108 0.12782866 0.55161756 8.4740091e-039
0.051669419 0.12789924 0.55199999 5.3379382e-039
0.063201755 0.12013157 0.55000001 2.001188e-038
0.077557899 0.12116743 0.55087507 2.0565048e-038
0.084591217 0.12084716 0.55107141 2.0656885e-038
0.092657886 0.12039423 0.55057144 2.0657244e-038
0.14508298 0.12886001 0.55795228 8.2024879e-039
0.15200877 0.12994298 0.55900002 1.0412627e-038
-0.15461253 0.13471706 0.5537833 4.9738458e-039
-0.041556727 0.13053332 0.55733341 1.0224601e-038
-0.038042106 0.13022105 0.55599999 9.6714537e-039
-0.0019548244 0.13035306 0.55449998 9.4877729e-039
0.0049082683 0.1316165 0.55092496 1.050121e-038
0.014199123 0.13108364 0.55335289 1.0500851e-038
0.022231676 0.13096014 0.55500001 1.0778159e-038
0.03469035 0.13045526 0.55699998 1.123986e-038
0.14580742 0.13250037 0.55515784 8.1077574e-039
0.15392172 0.13582788 0.55685896 8.3843457e-039
-0.1536185 0.141937 0.55054545 7.3541965e-040
0.15445147 0.1420908 0.55468965 6.7262691e-039
-0.0067952853 -0.12045844 0.563375 9.7716508e-039
-0.041263159 -0.11101754 0.56 9.9560266e-039
-0.038892105 -0.11240848 0.56122214 1.0232968e-038
-0.011902633 -0.11686634 0.5616315 1.678175e-038
-0.0067390166 -0.11708225 0.56091303 1.7150538e-038
0.0066666668 -0.11656141 0.56 1.6967582e-038
0.014632066 -0.11571111 0.56211114 1.6690636e-038
0.026857397 -0.1119 0.56552374 1.65048e-038
0.030893276 -0.11184356 0.565 1.6229297e-038
0.02733808 -0.10835965 0.56435293 1.6137461e-038
0.034761466 -0.10515212 0.56132513 1.6321495e-038
0.043228965 -0.10276441 0.5667429 1.5952712e-038
0.038830701 -0.09928713 0.56033331 1.6505881e-038
0.043321598 -0.098897591 0.56762499 1.5953074e-038
0.065122657 -0.072246999 0.5657059 1.207978e-038
0.064406626 -0.068194158 0.56288892 1.1802829e-038
0.066355668 -0.056959011 0.56109083 1.0420606e-038
-0.0930079 -0.030018421 0.56099999 8.2050355e-039
-0.0930079 -0.02903421 0.56099999 8.2050355e-039
0.057713114 -0.021763068 0.56178945 9.0369682e-039
-0.093268387 -0.011749868 0.56524992 1.0963286e-038
-0.089706138 -0.011894736 0.565 8.2046642e-039
0.056994256 -0.016145917 0.56318414 8.9444054e-039
0.067909651 -0.012302719 0.56099999 1.2909916e-038
-0.092006959 -0.0059730359 0.56769055 1.105475e-038
-0.085383102 -0.0038375682 0.56410956 7.8366187e-039
-0.0791348 -0.0014739766 0.56033331 7.8373418e-039
0.059068203 -0.0014949561 0.56825 8.7589464e-039
0.065273955 -0.0034153436 0.56707948 7.2841582e-039
0.070314474 -0.0029925439 0.56850004 9.2242167e-039
-0.090613157 0.0012959649 0.56819999 1.1513927e-038
-0.084035762 0.0037014855 0.56566131 7.5589388e-039
-0.075609513 0.0058992715 0.56302822 6.9143023e-039
-0.069469295 0.0083780708 0.56166667 7.3752875e-039
0.049117252 0.0069402531 0.56055552 9.8667303e-039
0.052643918 0.0063162572 0.56226671 9.1284422e-039
0.064894408 0.0013859654 0.56859261 7.2837911e-039
-0.073899053 0.011944047 0.56728572 7.4678418e-039
-0.069881573 0.010407895 0.565 8.1121364e-039
0.046581533 0.015812319 0.56100005 9.5897776e-039
0.052610468 0.015101644 0.56510001 1.0235507e-038
0.038535375 0.025700461 0.56080949 1.0142953e-038
0.044689205 0.024764789 0.56412083 9.9589189e-039
0.051580749 0.022529693 0.56815004 9.6819691e-039
0.036391478 0.035747323 0.56479663 1.0235144e-038
0.042757809 0.033126116 0.56753498 1.0050756e-038
0.028201709 0.046625156 0.56194735 1.0050398e-038
0.033348352 0.04431124 0.56556898 1.0418819e-038
-0.072410993 0.057409346 0.56614989 5.6159783e-039
-0.066522546 0.055731028 0.5624069 7.3741888e-039
0.017144922 0.058482032 0.56173688 9.1269862e-039
0.025460124 0.055469848 0.56551564 1.004967e-038
0.031082079 0.051138971 0.5675714 1.0418459e-038
-0.070872813 0.060960524 0.565 6.0701111e-039
-0.066055715 0.062152296 0.56171429 6.8166822e-039
-0.043843981 0.069457516 0.56157142 8.279544e-040
-0.023048539 0.068821289 0.56066662 8.1106623e-039
-0.014177956 0.068284713 0.56106448 8.7567702e-039
-0.0042870203 0.067148179 0.56161124 8.5723733e-039
0.0047138971 0.066517472 0.56285721 8.2961423e-039
0.014659111 0.064685583 0.56490785 8.7578393e-039
0.022130013 0.061626501 0.56592858 9.3117418e-039
-0.05413482 0.075474069 0.56805217 8.4816126e-039
-0.044756979 0.074838005 0.5658046 8.2050285e-039
-0.034750752 0.074902467 0.56510127 8.2954235e-039
-0.024838369 0.074806824 0.56502211 8.5720033e-039
-0.014891337 0.07496769 0.56592232 8.6642046e-039
-0.0054837153 0.073816881 0.56682259 8.9411516e-039
0.0046595163 0.071895458 0.56736356 8.4805266e-039
0.011206798 0.070470832 0.56775004 8.4808867e-039
0.13925527 0.07936053 0.56900001 2.0195907e-038
0.14488943 0.078578718 0.56603694 1.8629663e-038
-0.052846193 0.08026462 0.56833339 7.1854564e-039
-0.043937515 0.080949649 0.56804544 7.9266311e-039
-0.035004023 0.081195377 0.56810343 8.6645633e-039
-0.025323637 0.081579462 0.56870604 8.848956e-039
-0.015805554 0.080691509 0.56900012 8.6649249e-039
0.13640481 0.085918806 0.56537664 1.8075413e-038
0.14307055 0.083220124 0.56353337 1.7522601e-038
0.11907982 0.098983921 0.56800002 1.7983945e-038
0.12566869 0.096136399 0.56475002 1.8353082e-038
0.13238606 0.09162356 0.56260008 1.7891386e-038
0.039315209 0.10898596 0.56733328 1.235564e-038
0.04590518 0.1081082 0.56520402 1.6323326e-038
0.054759469 0.10703031 0.56545216 1.8351999e-038
0.064396396 0.10681934 0.56730789 1.9734935e-038
0.07135395 0.10877675 0.56883335 2.0287746e-038
0.089342982 0.10930789 0.56900001 2.1208976e-038
0.0959628 0.10906959 0.56880009 2.1025305e-038
0.10562783 0.10780574 0.56646556 2.0564691e-038
0.11493069 0.10459088 0.56484282 1.8445642e-038
0.12196623 0.10191028 0.56188464 1.8260886e-038
-0.15398724 0.11898967 0.5675714 1.1699396e-038
-0.14478445 0.11919355 0.56628567 1.234477e-038
-0.13659871 0.11921214 0.56723529 1.2436968e-038
-0.12278421 0.11929035 0.56900001 1.2621354e-038
-0.10056842 0.11979474 0.56199998 1.2711747e-038
0.038989533 0.11295192 0.56356251 9.8605786e-039
0.043177668 0.1115156 0.56164515 1.3001012e-038
0.056517169 0.11124612 0.56173074 1.9550543e-038
0.065843612 0.11265785 0.56374997 2.0011522e-038
0.074991807 0.11362001 0.56488174 2.0288107e-038
0.084918171 0.11345296 0.5642609 2.0472497e-038
0.094823688 0.11265694 0.56494677 2.0564691e-038
0.10391338 0.11192294 0.56255817 2.0288108e-038
-0.16021842 0.1202886 0.56900001 8.3800367e-039
-0.15601604 0.1228875 0.56413454 9.119017e-039
-0.14518416 0.1209901 0.56217647 1.2160377e-038
-0.1351597 0.12117235 0.56230766 1.2436605e-038
-0.12485541 0.12108696 0.56568563 1.2529158e-038
-0.11491759 0.12122399 0.56656104 1.2620994e-038
-0.10494683 0.12131088 0.56367648 1.2804666e-038
-0.09492939 0.12211947 0.56320012 1.225293e-038
-0.086232133 0.12209626 0.56354541 1.1699399e-038
-0.075292058 0.1236453 0.56322002 1.1146228e-038
-0.06431485 0.12358081 0.56528836 9.3033999e-039
-0.054921463 0.12456168 0.56651038 8.4739909e-039
-0.045612264 0.12625073 0.56284481 8.5661824e-039
-0.0017471291 0.12779337 0.56209093 8.934253e-039
0.0053195115 0.12748988 0.56256759 9.1189974e-039
0.015117129 0.12805617 0.56331593 9.6721698e-039
0.025585618 0.1279265 0.56330001 1.0132786e-038
0.034775943 0.12713914 0.56318378 9.4881485e-039
0.043949064 0.12724766 0.56300002 6.7223048e-039
0.14852338 0.12753685 0.56283331 8.9407761e-039
0.15373535 0.12806942 0.56534213 1.0689587e-038
-0.16216439 0.1344969 0.56462502 2.6714985e-039
-0.15916125 0.13274108 0.56116664 5.3433528e-039
0.0014856724 0.13019268 0.56433338 9.3026726e-039
0.015282456 0.13064036 0.56199998 1.0132795e-038
0.028694738 0.13011578 0.56400001 1.05023e-038
0.031521931 0.13052413 0.56150001 1.0871079e-038
0.15777774 0.13236479 0.56237507 1.0227883e-038
0.16263214 0.13433146 0.56718749 8.5694558e-039
0.15919936 0.14562479 0.56274998 7.0925363e-039
0.16230753 0.14377902 0.5652501 6.819901e-039
0.04822094 -0.10182467 0.57112497 1.539954e-038
0.048280995 -0.098567255 0.57233334 1.5860876e-038
0.050021052 -0.097515792 0.57599998 1.6413681e-038
0.075526312 -0.010573683 0.574 7.0071958e-039
-0.094461329 -0.0037352904 0.57069236 1.1512841e-038
0.069523469 -0.0077800434 0.57225001 4.6133618e-039
0.073635906 -0.0055845925 0.57296228 7.6525834e-039
-0.092250004 0.0017499999 0.56999999 1.160541e-038
-0.086014457 0.008410777 0.57371432 9.8656527e-039
0.059500001 0.0019999999 0.56999999 8.0199268e-039
0.06647788 0.0059913448 0.57307541 6.0834458e-039
0.074223265 0.0057448894 0.57534802 9.1291568e-039
-0.083020821 0.01426831 0.57595742 8.0220918e-039
-0.077810936 0.015379467 0.57228118 7.8373362e-039
0.068098888 0.011573366 0.57818186 7.0061336e-039
0.074485883 0.012658455 0.5771488 8.8518469e-039
-0.081264675 0.022331661 0.57736361 8.6663794e-039
-0.079135239 0.02239576 0.57583338 8.7585792e-039
0.054128855 0.027124709 0.57788903 1.0142949e-038
0.061718609 0.024962084 0.57900017 9.7738074e-039
0.045830492 0.036511492 0.57285362 9.9581958e-039
0.056176186 0.033052254 0.57842857 1.0142223e-038
0.060842104 0.037519298 0.57800001 1.0600667e-038
0.037868541 0.04591585 0.57344836 1.0419535e-038
0.042491138 0.043436371 0.57617855 1.0142586e-038
-0.076204374 0.058164679 0.57118183 5.613086e-039
0.028529573 0.058988221 0.57057142 1.0694673e-038
0.033784252 0.05412472 0.57512182 1.0787243e-038
-0.075131573 0.060606141 0.57099998 5.613086e-039
-0.06384252 0.06876485 0.57726669 6.8220997e-039
-0.056779761 0.069178008 0.57207149 2.3970878e-039
0.018014034 0.068808012 0.5725714 8.9422292e-039
0.024505563 0.065281525 0.5766744 9.6798055e-039
0.031193567 0.060533915 0.57666665 1.0602849e-038
-0.07080052 0.075879477 0.579 8.473621e-039
-0.065002866 0.074689254 0.57616681 8.1084874e-039
-0.05738546 0.072670214 0.57099998 7.3767182e-039
-0.003985933 0.078415684 0.57099998 8.480528e-039
0.0054776669 0.076747999 0.57311535 8.2954123e-039
0.014783743 0.074004181 0.57569987 8.7574792e-039
0.021126315 0.070813447 0.57800001 9.1259156e-039
0.14121428 0.078357145 0.56999999 2.0104436e-038
-0.05384044 0.08549016 0.57628572 9.0333444e-039
-0.045327377 0.085900627 0.57284617 8.9411502e-039
-0.035061821 0.086235106 0.57191795 8.9418761e-039
-0.024865838 0.086513042 0.57230347 9.2173784e-039
-0.014925426 0.085780799 0.57359999 8.9411488e-039
-0.0058504329 0.083838142 0.5755263 8.4798063e-039
0.0029240889 0.081086978 0.5774616 8.1106623e-039
0.12813222 0.089029774 0.57646668 1.9366511e-038
0.1327166 0.087095626 0.57576931 1.9458344e-038
-0.051878653 0.092310131 0.5785557 8.664192e-039
-0.044215295 0.094439916 0.57733321 8.7563876e-039
-0.035303038 0.094526798 0.57643181 9.1255415e-039
-0.025492797 0.094476238 0.57708228 9.0337018e-039
-0.017074658 0.091637045 0.57822222 8.8496706e-039
0.058762722 0.099288598 0.57749999 1.6508441e-038
0.066026136 0.097307459 0.57633334 1.6693195e-038
0.072995417 0.097164243 0.57817066 1.7705912e-038
0.10786458 0.098904796 0.57730776 2.1209693e-038
0.11596788 0.096199654 0.57531166 1.9551261e-038
0.12376872 0.092671506 0.57375002 1.9274317e-038
0.1305 0.090499997 0.56999999 1.8721866e-038
-0.041727979 0.10112009 0.57870001 3.9550304e-039
-0.035964254 0.10091996 0.57850003 5.3429927e-039
-0.026354097 0.10090174 0.57900006 4.2388129e-039
0.037625957 0.10819335 0.57613635 1.1619163e-038
0.044025749 0.10615325 0.57486475 1.6507718e-038
0.057200678 0.10242119 0.57391429 1.641553e-038
0.065547995 0.1020898 0.57204169 1.8260163e-038
0.075201206 0.1049999 0.57395971 2.001152e-038
0.084965542 0.10599007 0.57466322 2.111714e-038
0.094941244 0.10488075 0.57459772 2.1854336e-038
0.10470852 0.10317929 0.57456571 2.1394082e-038
0.11236 0.10136624 0.57195646 1.9919687e-038
-0.16305825 0.11907842 0.57620001 8.3829163e-039
