# .PCD v0.7 - Point Cloud Data file format
VERSION 0.7
FIELDS x y z rgba
SIZE 4 4 4 4
TYPE F F F U
COUNT 1 1 1 1
WIDTH 1064
HEIGHT 1
VIEWPOINT 0 0 0 1 0 0 0
POINTS 1064
DATA ascii
-0.0546326 0.0452816 0.69545096 4285750330
-0.039037101 0.045823101 0.69541699 4285684538
-0.078400299 0.043777302 0.68088704 4286277176
-0.035831798 0.048949901 0.69819599 4285356343
-0.141811 0.049785301 0.760791 4291804057
-0.13704899 0.051817402 0.75053698 4292264094
-0.102013 0.048751801 0.70112401 4292198556
-0.041933801 0.0534488 0.70098299 4286079807
-0.033284802 0.054642603 0.70123702 4285816384
-0.0132057 0.055923998 0.688214 4287000888
-0.067501299 0.0567188 0.70461202 4286342984
-0.0242234 0.059743401 0.70485604 4285816125
-0.012441901 0.0593215 0.69014698 4287330889
-0.0108201 0.059329398 0.68910199 4287264841
-0.14203399 0.058097597 0.74793202 4291935128
-0.095853999 0.053301603 0.69046503 4289041535
-0.093961306 0.0546945 0.68997496 4285686324
-0.092073098 0.0535684 0.68885601 4285751607
-0.027668301 0.062080503 0.70700699 4285553976
-0.0260207 0.0615969 0.70642602 4285422133
-0.0191152 0.064353898 0.70845801 4285948222
-0.13349201 0.061042197 0.72947901 4292001183
-0.0180979 0.068273 0.71202803 4286013759
-0.0160568 0.0682768 0.71171802 4285947965
-0.0159446 0.071231 0.71315503 4286013498
-0.143006 0.065963797 0.73637497 4291672215
-0.138091 0.0650758 0.73022604 4291869852
-0.0022257299 0.0784216 0.71915197 4286144836
0.0081050303 0.075586304 0.69968104 4287331409
-0.14339501 0.070663698 0.72965801 4291475351
-0.078679606 0.076584198 0.72016495 4287330649
0.0032273601 0.083930396 0.72380203 4287200351
0.00794347 0.086344495 0.72535998 4287331935
0.024490001 0.085318901 0.71067703 4288512828
-0.095780298 0.0801588 0.72301203 4286541910
0.0102119 0.089476503 0.726228 4287660642
-0.057764001 0.085057996 0.72601396 4287528535
-0.038132999 0.090481795 0.729204 4287463006
-0.0089435102 0.112408 0.744515 4287989608
-0.0086380597 0.114685 0.74587595 4288055404
-0.0063290303 0.114698 0.74590898 4287727212
-0.116733 0.10825 0.745368 4288318059
-0.0580847 0.11469001 0.75011605 4287330903
-0.093037903 0.11709201 0.75138199 4288515436
-0.0607026 0.118862 0.75115901 4287791712
-0.11447699 0.116747 0.751885 4287528538
-0.087739304 0.122974 0.75559402 4287989352
-0.042493802 0.12640101 0.75557798 4287989356
-0.050729901 0.134599 0.76300895 4286934854
-0.0541404 0.147062 0.77137405 4287923811
-0.109652 0.149896 0.77615505 4288580455
-0.11063 0.15251699 0.77844095 4288318322
-0.051973902 -0.0193747 0.73432803 4292328856
-0.070749998 -0.0155354 0.756392 4292790436
-0.069167197 -0.0129207 0.75020301 4292394908
-0.053875498 -0.0121611 0.72557896 4292460959
-0.047501203 -0.0092455 0.71853602 4292855459
-0.070690103 -0.0082017407 0.74388701 4292461218
-0.097809799 0.00013992899 0.772098 4292659883
-0.085237101 0.0029032801 0.74796003 4292659110
-0.094098397 0.0047002202 0.75856405 4292394657
-0.075400099 0.0056301798 0.72989804 4292526496
-0.047752101 0.0081519 0.69240397 4292197524
-0.092969298 0.0091569498 0.75005299 4292921512
-0.098023497 0.0115043 0.75382501 4292856490
-0.0483745 0.0131609 0.68331802 4292131986
-0.0486832 0.0154141 0.68055904 4292329110
-0.11852 0.016230801 0.77946299 4292790696
-0.0583915 0.0156889 0.68727505 4292198298
-0.094603501 0.0182293 0.73897702 4292855460
-0.075926103 0.0204302 0.70627004 4292395164
-0.093359597 0.023314301 0.72985899 4292856233
-0.130916 0.026109502 0.78015 4292198820
-0.12686799 0.025378799 0.77540398 4292066467
-0.062509403 0.0242374 0.68002504 4292329368
-0.111239 0.0280932 0.74820399 4292526497
-0.14204499 0.030368401 0.79176301 4292330919
-0.116351 0.029501699 0.75350499 4292329117
-0.11197899 0.031576 0.74347401 4292395684
-0.078979895 0.0308962 0.69463003 4292066198
-0.0397329 0.032795601 0.67335796 4286801701
-0.14752901 0.035051998 0.79219705 4293912547
-0.119052 0.0339959 0.75064802 4292198558
-0.081968904 0.0370024 0.69008601 4292395421
-0.035059601 0.039384898 0.676494 4286804033
-0.072381102 0.039049301 0.67930698 4288449134
-0.128832 0.043007802 0.751499 4292395938
-0.072760202 0.041092701 0.67840505 4285290539
-0.025687799 0.044996101 0.68143404 4286802474
-0.056848802 0.045906398 0.69622201 4285947709
-0.0200087 0.051119801 0.68481404 4286606653
-0.13518 0.049735002 0.75032502 4292330146
-0.0282757 0.054899398 0.70130199 4285750587
-0.121455 0.050560199 0.72748703 4291737748
-0.028852899 0.0564298 0.70170695 4285816127
-0.0150617 0.0570319 0.68902099 4287133513
-0.091963895 0.050762903 0.688402 4289238914
-0.094048105 0.052950297 0.689632 4287659356
-0.0072828303 0.061593898 0.69266802 4287199556
-0.121335 0.056528598 0.71774298 4292000665
-0.016690001 0.066072002 0.709185 4285947963
-0.0050530098 0.064052694 0.69301301 4287330373
-0.142343 0.0606061 0.74402601 4291672214
-0.101004 0.060033403 0.69499904 4285883196
-0.11674099 0.061895199 0.70305002 4292264093
0.0217661 0.0847525 0.70959997 4287593020
-0.15288401 0.075494699 0.73570597 4290555817
-0.074398801 0.082040899 0.72408503 4287660645
-0.0261983 0.085061096 0.72460401 4287134043
-0.13469701 0.079473704 0.71119899 4286738505
-0.031054702 0.089863703 0.728212 4287463518
-0.030684099 0.094083197 0.73133802 4287068755
-0.109137 0.091164999 0.732355 4286870879
-0.0106093 0.105142 0.73843199 4288252780
-0.10735501 0.099339701 0.73863399 4288318831
-0.0396908 0.109121 0.74578196 4286673748
-0.118954 0.104846 0.742387 4288449657
-0.10261799 0.104907 0.74180603 4287923816
-0.0052968203 0.1236 0.75271803 4287924079
-0.0029271902 0.123731 0.75245303 4288911478
-0.00084599503 0.12348101 0.75134301 4289108603
-0.048367098 0.122569 0.75295204 4288186466
-0.090236604 0.121055 0.75380701 4288186468
-0.102632 0.121816 0.75444895 4287989347
-0.0538637 0.129472 0.75491303 4288645725
-0.093091302 0.144078 0.77061403 4288054362
-0.049550898 0.15029201 0.77441603 4288318049
-0.046868697 0.15285401 0.77606702 4288054879
-0.0359882 0.157179 0.77924198 4287660120
-0.051772799 -0.033959001 0.75714803 4292132758
-0.048972599 -0.030736798 0.75075096 4292461729
-0.047401201 -0.026545299 0.74381202 4292593057
-0.046562001 -0.018750601 0.73079604 4292659365
-0.049186002 -0.013938501 0.72434801 4292329369
-0.089959003 -0.0074745496 0.771281 4292461731
-0.091636002 0.0026503301 0.75893801 4292329374
-0.075318605 0.00350944 0.732997 4292460446
-0.095897101 0.013437199 0.74756002 4292789924
-0.12090001 0.018426901 0.77948797 4292593577
-0.14406799 0.035361998 0.78735197 4291671960
-0.129914 0.034173001 0.76695502 4292396709
-0.089015402 0.032585703 0.70653999 4292197530
-0.039902698 0.034050599 0.67286795 4286869053
-0.087111004 0.034721099 0.70078301 4292329631
-0.0397643 0.0361013 0.67398 4286672443
-0.080483004 0.038343601 0.68659496 4292527522
-0.045660198 0.041681197 0.69335997 4285487669
-0.030615401 0.0415144 0.67915398 4286803767
-0.140771 0.0455028 0.76494002 4291738005
-0.090938799 0.042490602 0.69399905 4292329628
-0.074979201 0.0422519 0.67942101 4285685293
-0.14859501 0.048688598 0.77345204 4294175716
-0.125903 0.052964803 0.73054099 4291672469
-0.074842103 0.0548953 0.70416099 4286014271
-0.072269097 0.054669101 0.70393199 4286080325
-0.0259807 0.058408599 0.70415902 4285356342
-0.016167199 0.057021901 0.68771398 4286869569
-0.090758301 0.0529534 0.68810201 4286014523
-0.075324498 0.056554001 0.705221 4286080063
-0.021304799 0.061399501 0.70648402 4286079554
0.00060553697 0.0641433 0.69834805 4290089278
0.0078496402 0.068657897 0.70357597 4291603303
-0.106401 0.075786799 0.72047997 4286673744
-0.103833 0.075077198 0.71995097 4286738771
0.0049676299 0.0850522 0.72243595 4287595109
-0.14392701 0.074432701 0.724859 4291541142
0.0079704598 0.091313601 0.72790998 4287397728
0.032386601 0.093849897 0.71637905 4287397190
-0.148991 0.082353204 0.72058898 4291476128
-0.083843 0.090874903 0.73095697 4287529317
-0.149793 0.084341004 0.719751 4291278761
-0.083923794 0.101866 0.73946601 4288319599
-0.102326 0.114124 0.74933004 4287923294
-0.105312 0.13324201 0.76318401 4288449382
-0.0490757 -0.029262699 0.74837202 4292659363
-0.053997602 -0.027022399 0.74970698 4292658847
-0.049701899 -0.026613399 0.74369705 4292658078
-0.050229501 -0.0245644 0.74073398 4292263317
-0.049021501 -0.023445601 0.73895895 4292131482
-0.054840099 -0.0171108 0.73462701 4292395163
-0.049457803 -0.012308501 0.72237301 4292328597
-0.0514086 0.0031906599 0.697887 4292197009
-0.057209499 0.0045201899 0.70352101 4292592283
-0.102026 0.0093113203 0.76401204 4292460705
-0.0487362 0.0098541295 0.68790799 4291934614
-0.048971903 0.0143201 0.68175501 4292131988
-0.0564356 0.0155469 0.68443203 4292329369
-0.099812895 0.0229018 0.73836297 4292725166
-0.0843492 0.0240849 0.71478403 4292460448
-0.122593 0.026796499 0.76641399 4292461991
-0.091338404 0.0280686 0.71756703 4292263068
-0.077419095 0.031579398 0.68983001 4292132504
-0.0413596 0.035374999 0.67418998 4286672698
-0.13972701 0.039281897 0.77414203 4292528038
-0.124139 0.042526599 0.74428201 4292396194
-0.0410964 0.045103099 0.69449401 4285619000
-0.126637 0.043846902 0.74710399 4292330401
-0.116064 0.043837298 0.730353 4292000406
-0.10960501 0.0452049 0.717224 4292000148
-0.0655571 0.0504779 0.700477 4286014272
-0.0540956 0.050579701 0.69949901 4285947455
-0.069615997 0.053895403 0.70259005 4286474825
-0.0042025 0.059530299 0.695894 4291142492
-0.077957399 0.058793597 0.70670503 4286474825
-0.109192 0.057515401 0.69931704 4292330141
-0.1453 0.064451799 0.74334103 4291409299
0.0122991 0.075943604 0.70402896 4287854632
-0.097373903 0.070169598 0.71609497 4286079039
-0.00030741599 0.079297498 0.72021401 4286342982
-0.088638499 0.072423205 0.71744895 4286605901
-0.0245387 0.078773104 0.71926999 4286870088
0.0022955302 0.082038201 0.72163898 4286936916
0.0132582 0.080498904 0.70659196 4287397463
0.00529441 0.084932603 0.72408098 4287660645
-0.109406 0.076012395 0.72104198 4285948998
0.0073087099 0.087530598 0.72489399 4287397468
-0.110126 0.0783737 0.72254997 4286146378
0.0030958098 0.089891896 0.72666401 4287463011
0.0053165997 0.089662693 0.72653198 4287463265
-0.0109987 0.096001402 0.73251504 4287858018
-0.100164 0.109642 0.74436796 4287529309
-0.092276603 0.111054 0.74646801 4288383596
-0.062835798 0.13213001 0.76019502 4288054373
-0.089795098 0.131413 0.76092798 4287989345
-0.062718801 0.13466799 0.760791 4288120679
-0.0104109 0.159069 0.77844703 4287266139
-0.103133 0.15666799 0.77966601 4287857760
-0.0479047 -0.0170951 0.72869098 4292658847
-0.084244601 -0.010897101 0.76893198 4292527014
-0.0468366 -0.0069943201 0.71627003 4292855715
-0.033876203 -0.0055098902 0.736435 4292527774
-0.049648996 -0.00069940003 0.70411605 4292790171
-0.080038801 5.6365301e-05 0.74610102 4292724904
-0.116772 0.0102422 0.785604 4292199075
-0.0704436 0.0112843 0.71342295 4292921506
-0.058989801 0.011574199 0.69559598 4292724130
-0.10671701 0.0147086 0.76333505 4292527268
-0.056786302 0.0133695 0.68883801 4292198047
-0.140166 0.0199067 0.80478495 4293123025
-0.101519 0.018871 0.747904 4292526751
-0.116503 0.020684199 0.76837802 4292395428
-0.137512 0.0240371 0.79478699 4292068003
-0.0510245 0.024644502 0.66895396 4290289805
-0.113221 0.029015301 0.74899298 4292460705
-0.104984 0.029097499 0.73551399 4292855972
-0.093855903 0.031557199 0.71570802 4292460959
-0.084457904 0.0330345 0.69944799 4292132248
-0.042664099 0.0348658 0.67248702 4286342967
-0.026834998 0.040546201 0.68270397 4290878800
-0.14466299 0.042394601 0.77659696 4292397484
-0.111277 0.040244702 0.72787595 4292197784
-0.077326894 0.041645303 0.68061298 4289040759
-0.025403799 0.046881001 0.68189096 4286738498
-0.025145398 0.049194697 0.68248701 4286606907
-0.067155898 0.050943598 0.70145804 4286211398
-0.065551005 0.055186402 0.70301205 4286145859
-0.00710196 0.0593266 0.69261795 4288379427
-0.00145874 0.062445499 0.69591999 4290089017
-0.130798 0.058050301 0.730654 4291868824
-0.111055 0.055592302 0.70343101 4292133023
-0.0029764099 0.068320505 0.69453001 4287133254
-0.080485702 0.074284501 0.71871996 4287068239
-0.13305299 0.079901904 0.70993203 4286146364
-0.109026 0.097115599 0.73677897 4287595370
-0.073493898 0.101988 0.73931801 4288581482
-0.045831401 0.114553 0.74861497 4287725143
0.00038227497 0.12208699 0.75041801 4288976760
-0.061411098 0.12797099 0.75471801 4287659612
-0.038478501 0.138 0.76463503 4288713074
-0.043367099 0.14032 0.76670694 4288318321
-0.091671303 0.141507 0.768677 4287988826
-0.012558601 0.15968201 0.77935302 4287331412
-0.0616225 -0.022846099 0.75456095 4292659621
-0.072864302 -0.015978599 0.76024801 4292724643
-0.078749798 -0.0111123 0.76189601 4292921771
-0.075875394 -0.0084224008 0.75248402 4292526752
-0.058186699 -0.0041320901 0.71897197 4292923058
-0.086561404 -0.00255589 0.75931799 4292724131
-0.061203901 -0.00077772496 0.71815801 4292857005
-0.050155997 0.00064908701 0.70216197 4292591769
-0.088218696 0.0036251401 0.75210798 4292724389
-0.093598798 0.00655055 0.75438899 4292527269
-0.068183802 0.0067348098 0.71738297 4293053354
-0.0573381 0.0074065798 0.70013398 4292263324
-0.073624097 0.0091300597 0.72046602 4293053613
-0.050331403 0.0099776294 0.690175 4291934869
-0.101257 0.0139607 0.75508696 4292856493
-0.070620701 0.0137522 0.70946801 4292460704
-0.0810569 0.0183366 0.71825701 4292790182
-0.127213 0.0218629 0.78386104 4292725161
-0.086902902 0.0193922 0.72539097 4292921767
-0.10899 0.0239585 0.751297 4292329374
-0.053138599 0.023968799 0.66880703 4292658597
-0.0847691 0.0266273 0.710953 4292592288
-0.0528902 0.0267698 0.66854101 4288054371
-0.051412497 0.026565 0.66810399 4286737470
-0.093222506 0.0280245 0.720761 4292394909
-0.048353098 0.029334201 0.66868901 4286540862
-0.13606301 0.0345117 0.77519703 4292330148
-0.138547 0.036773998 0.77554303 4292264610
-0.089130305 0.037353002 0.70017999 4292197786
-0.038714297 0.0387403 0.67691499 4286474550
-0.037097 0.039123598 0.67598999 4286409020
-0.121611 0.044856898 0.73738801 4292198303
-0.12738401 0.046811201 0.74158698 4292329885
-0.072050005 0.052587301 0.70279902 4286277448
-0.116255 0.054066602 0.714935 4291869339
-0.119107 0.056240201 0.71514601 4292000408
-0.0508742 0.063203298 0.70862204 4286936146
-0.0150525 0.067826897 0.71080601 4285882171
-0.0777447 0.067842402 0.71322 4286672203
-0.035366099 0.074201204 0.71678305 4286475085
-0.0038777299 0.076624803 0.71716499 4286210628
0.0016474399 0.083274201 0.72248697 4286871383
-0.14453501 0.072152704 0.72863203 4291475607
0.0281127 0.088514999 0.71284401 4289169983
-0.12705 0.074596398 0.70712 4287001935
-0.151381 0.0790677 0.728643 4289831830
-0.114959 0.081015699 0.72501099 4286870872
-0.106267 0.080542505 0.72356898 4287069531
-0.108193 0.088690802 0.72988397 4286937185
-0.019129299 0.097982101 0.73363096 4287594332
-0.14176899 0.086299002 0.71523499 4286540354
-0.041109797 0.104734 0.74461997 4280491535
-0.076045997 0.11335099 0.74770802 4288779890
-0.098651901 0.115249 0.74946898 4287857768
-0.051984102 0.12855299 0.75619799 4288645986
-0.050049301 0.14127699 0.768103 4288515433
-0.0552832 0.142416 0.76874202 4287989088
-0.0526121 0.14407299 0.77052504 4288186469
-0.0524101 0.15520599 0.77761197 4288252515
-0.093476199 0.15355401 0.77784002 4287922777
-0.088473 0.156866 0.78043902 4288121194
-0.0472668 -0.027531601 0.74521899 4292724386
-0.0544254 -0.018862801 0.73629099 4292263062
-0.073376901 -0.0130139 0.75704199 4292921763
-0.056504101 -0.0119389 0.72843903 4292724384
-0.072787203 -0.0080251703 0.748133 4292460705
-0.101935 -0.0055545303 0.78621602 4293255385
-0.0505164 -0.0046970299 0.70989501 4292987558
-0.077298597 0.0027886501 0.73701102 4292658342
-0.077875502 0.00572134 0.733971 4292526242
-0.083145104 0.0103314 0.73490995 4292658085
-0.073681705 0.0120348 0.71666497 4293053093
-0.061290298 0.0122649 0.69779402 4292592544
-0.0524134 0.0132505 0.68354601 4292197527
-0.065048106 0.014515299 0.69946897 4292526750
-0.116314 0.017128401 0.77509701 4292593320
-0.050773799 0.0163277 0.678455 4292000662
-0.13615699 0.019740101 0.80037796 4292199849
-0.063973203 0.0176004 0.69237298 4292329119
-0.077514604 0.0203139 0.70870101 4292197786
-0.0663606 0.020258199 0.693452 4292329120
-0.055583403 0.019361099 0.67715198 4292197526
-0.113822 0.028285298 0.75081998 4292460450
-0.018208401 0.035240199 0.70578098 4292329866
-0.12174401 0.037207 0.75009 4292395939
-0.098603897 0.035530798 0.71629304 4292395422
-0.094348803 0.035248902 0.71154398 4292197788
-0.12407 0.0391283 0.75086701 4292527011
-0.1345 0.049598303 0.74907798 4292395681
-0.090114899 0.0478433 0.68751204 4292066981
-0.117738 0.050020501 0.72146195 4291934615
-0.073633499 0.0536501 0.70303005 4285948738
-0.0093275402 0.056758702 0.69058597 4288576804
-0.096332699 0.054629698 0.69076097 4287396181
-0.071246497 0.060238998 0.70801395 4286541383
-0.133931 0.0594749 0.73217404 4291803545
0.0123994 0.070377201 0.711357 4292263042
0.00077017199 0.070730202 0.69668597 4287330891
0.0044489596 0.070145898 0.70087403 4287460657
-0.143407 0.0645587 0.73897702 4291409557
-0.119716 0.062366698 0.705558 4292132769
0.0011051199 0.072308704 0.69833899 4287067464
-0.015473 0.075697802 0.71694601 4286145089
-0.081636399 0.083049595 0.72547495 4287595104
-0.00108105 0.091783896 0.72921902 4287199836
0.00072221603 0.089697197 0.72661 4287265886
-0.13606501 0.077854298 0.71143103 4290291090
-0.086777903 0.096071407 0.734685 4287463003
-0.036803797 0.101758 0.73725802 4285293133
-0.083524302 0.099214301 0.73762095 4288187756
-0.043914903 0.109306 0.746795 4285225275
-0.083866306 0.109894 0.74498796 4288648305
-0.0554014 0.119762 0.75139803 4288252267
-0.055298399 0.124612 0.75375998 4288977272
-0.053479698 0.125131 0.75412798 4289371769
-0.110629 0.14264999 0.77041197 4288515954
-0.0341915 0.15426101 0.77633601 4287791970
-0.0529541 -0.0232828 0.74166197 4292264092
-0.041365299 -0.0140947 0.73245096 4292264081
-0.081351601 -0.014056699 0.77019 4292461475
-0.0741065 -0.014340901 0.75948602 4292790694
-0.050319899 -0.0107562 0.719486 4292526490
-0.048729401 -0.0079382705 0.71635199 4293118888
-0.020748699 -0.0045419303 0.75691497 4291803530
-0.0832996 -0.0048908102 0.75792903 4292724134
-0.0578252 -0.0056475098 0.72161198 4292790961
-0.054095298 -0.0019306 0.708507 4292987814
-0.094988197 -0.00114758 0.769503 4292856748
-0.114301 0.0078525497 0.78485 4292264354
-0.065164104 0.00957416 0.70907801 4292658083
-0.10042199 0.017809201 0.74841398 4292592033
-0.118262 0.0198521 0.77298599 4292395170
-0.11371499 0.0198907 0.76467401 4292593577
-0.061664101 0.019090999 0.68718404 4292461730
-0.083144598 0.021412101 0.71696997 4292526753
-0.085309498 0.023965299 0.71681201 4292394657
-0.073894702 0.023510201 0.699651 4292066198
-0.066325501 0.023521999 0.68928099 4292329374
-0.14012 0.0275713 0.79362702 4292396453
-0.0925854 0.0255896 0.72381002 4292658850
-0.063638702 0.025509501 0.68172699 4292263835
-0.065542996 0.0278336 0.67938298 4292395677
-0.059824001 0.027162701 0.67429799 4292461216
-0.13320699 0.0301254 0.77674198 4292197278
-0.11382 0.0304267 0.74705905 4292461218
-0.067753002 0.0293466 0.68124402 4292395679
-0.14340501 0.033978902 0.788266 4291936421
-0.125421 0.0355657 0.75822496 4292131736
-0.062146802 0.034118198 0.67354602 4285817143
-0.096088499 0.040871102 0.70588499 4292000409
-0.053861 0.042738203 0.69425297 4285486902
-0.0296956 0.0429077 0.67911702 4286804034
-0.0847473 0.048131101 0.68481797 4286277182
-0.149744 0.052623298 0.76537001 4294242285
-0.14648199 0.056166001 0.75621998 4292067487
-0.117152 0.054060601 0.71433902 4292000668
-0.091958798 0.052715302 0.689484 4286540611
-0.078100994 0.057312302 0.70495397 4286475080
-0.14428599 0.059251599 0.74891102 4291869337
-0.135479 0.057966501 0.738976 4291737752
-0.124242 0.058278501 0.72041601 4291935127
-0.080325305 0.060975499 0.70874298 4286211655
-0.049259201 0.065945901 0.710971 4287133778
-0.011484199 0.069933102 0.712309 4285947458
-0.0090167401 0.071848996 0.71395302 4286409284
0.0100424 0.0719928 0.70306498 4290022968
-0.126654 0.065371901 0.71132201 4292066719
-0.053807098 0.0724013 0.715455 4286672714
-0.074331 0.084693804 0.72589302 4287924072
-0.0039492701 0.090632498 0.72733301 4286936917
-0.116574 0.083537698 0.72700298 4287068764
-0.00327481 0.094965696 0.73132503 4287002713
-0.00061642699 0.095022202 0.73118299 4287463010
0.00191905 0.098107301 0.73354399 4287990383
-0.086578697 0.094012499 0.73341697 4287462743
-0.038889702 0.102075 0.73877102 4280163095
-0.11677 0.096456803 0.73658401 4287989865
-0.045446098 0.109047 0.74891305 4283581228
-0.047648799 0.115707 0.749488 4287856986
-0.0371597 0.122307 0.75257897 4288581746
-0.034726501 0.125241 0.75422901 4288054636
-0.051867902 0.134563 0.76063204 4286277694
-0.109499 0.134781 0.76485604 4288646769
-0.077130698 0.15113801 0.774988 4288515439
-0.055834498 -0.028345501 0.75501502 4292199068
-0.066326596 -0.0173684 0.75375003 4292856230
-0.081323802 -0.0113527 0.76647699 4292724133
-0.042860899 -0.0047515603 0.716335 4292065668
-0.0610676 -0.0027033 0.72098202 4292790956
-0.0673142 0.00025601502 0.72587699 4292658085
-0.102143 0.00702145 0.76686502 4292725164
-0.080595203 0.0082666101 0.73456001 4292592292
-0.075699896 0.0113932 0.72010398 4292988074
-0.10114 0.011998001 0.7597 4292659116
-0.106303 0.016904401 0.758834 4292790185
-0.092121102 0.0179935 0.73562902 4292724906
-0.109056 0.019465299 0.75994098 4292659885
-0.107149 0.020309201 0.75422901 4292790184
-0.052507501 0.0193775 0.67354196 4292263835
-0.120874 0.022201099 0.77248496 4292263584
-0.082546204 0.025681999 0.70935702 4292658595
-0.057826698 0.027585199 0.67134005 4291934883
-0.058139499 0.029455401 0.67191201 4289435522
-0.0448558 0.034730799 0.67173201 4286013493
0.023537301 0.0479955 0.76105601 4292066956
-0.120545 0.036724601 0.74818796 4292593320
-0.0280362 0.042079102 0.68042099 4287261982
-0.14483099 0.043699499 0.77424198 4292396714
-0.094578497 0.042788099 0.700818 4292066201
-0.129109 0.0481897 0.74279797 4292133278
-0.031114599 0.052808199 0.70005399 4286145603
-0.145014 0.052073799 0.76318002 4291935128
-0.141831 0.055741299 0.75263101 4292132249
-0.0987418 0.057007 0.69223899 4286541124
-0.137628 0.061664797 0.73576301 4291540632
-0.0601805 0.064997599 0.71019596 4286672459
-0.136002 0.064954899 0.72609699 4292001180
-0.0408036 0.078365602 0.72018903 4287133266
-0.073079497 0.077056699 0.720218 4287529052
-0.091014504 0.080473095 0.72343796 4287463522
-0.0990301 0.082288198 0.72486103 4287002200
0.0084514199 0.093322098 0.72845602 4287660388
-0.072421305 0.087966301 0.728755 4288253035
0.030425601 0.095658302 0.71687704 4287072106
-0.120318 0.0885268 0.730766 4288122754
0.0044446304 0.103143 0.736458 4288253297
-0.0270242 0.117305 0.74822199 4288055140
-0.11313201 0.113473 0.74927598 4287331675
-0.113452 0.119792 0.75446302 4287594595
-0.060447 0.127039 0.75642997 4287725921
-0.0581511 0.12827401 0.75437701 4287790937
-0.0030621199 0.134901 0.76019204 4288911479
-0.116455 0.12571199 0.75848496 4288384637
-0.109909 0.13167599 0.76190299 4288712820
-0.065849699 0.13737801 0.765073 4288581484
-0.0533241 0.13890401 0.76618904 4287989090
-0.048646901 -0.025643 0.74176002 4292329631
-0.069733299 0.00287042 0.72550899 4292789927
-0.047198001 0.00386252 0.69823998 4292394899
-0.072081499 0.0047661401 0.72641098 4292658855
-0.069479801 0.0070949304 0.718485 4293053869
-0.0477807 0.013711001 0.68471599 4292131735
-0.091148801 0.027018601 0.71862 4292395168
0.0087263901 0.037091702 0.74865001 4292001673
-0.102835 0.034049001 0.72541398 4292329629
-0.0684435 0.039292902 0.67673701 4285553202
-0.0047915601 0.081650004 0.720788 4286475087
-0.032687303 0.081204601 0.72041804 4287726947
-0.057523798 0.082995601 0.724222 4287528535
0.00595026 0.099596396 0.73341304 4287726956
-0.020785101 0.102031 0.73688704 4287791970
-0.015984999 0.102491 0.737104 4287529062
-0.0598768 0.12568399 0.75432199 4287462483
-0.050340697 0.135269 0.76405001 4287791457
-0.108588 0.154176 0.77830404 4287989089
-0.049797099 -0.035164602 0.75738597 4292067224
-0.052157398 -0.025381399 0.74397302 4292724127
-0.073262103 -0.022481801 0.76984805 4293451473
-0.0535542 -0.013286101 0.726722 4292657823
-0.073961198 -0.0093955901 0.751876 4292395427
-0.0569029 -0.00764539 0.72338098 4292460703
-0.100712 0.0056920699 0.768525 4292725164
-0.082476698 0.0055804099 0.74122304 4292855721
-0.0764663 0.0081808297 0.728854 4292789930
-0.070664398 0.0078745298 0.71936202 4293119148
-0.066706397 0.0080944905 0.713449 4292987814
-0.118497 0.0087413602 0.78920698 4292264873
-0.057840802 0.0092890393 0.69814599 4292394906
-0.0509694 0.0151551 0.67943704 4292000661
-0.0495276 0.0171865 0.67602396 4292461211
-0.050532602 0.019378999 0.67601502 4292461730
-0.068541102 0.020407401 0.69550896 4292131483
-0.132543 0.025400801 0.78601003 4292396197
-0.13517301 0.0280912 0.78509599 4292330660
-0.042095002 0.030207001 0.67203498 4287129889
-0.090244301 0.0318547 0.70985401 4292329633
-0.035474498 0.037358299 0.675556 4286869302
0.00432709 0.047471199 0.72337598 4292330642
-0.086398497 0.039734598 0.69347101 4292394652
-0.0765661 0.038685001 0.68163705 4292724650
-0.070399694 0.039668702 0.67828006 4285488176
-0.00057933404 0.050368402 0.71557003 4292264074
-0.107841 0.043564402 0.71815598 4292066205
-0.057319198 0.059738901 0.70732099 4286803787
0.0018845 0.062859297 0.70179701 4292327552
-0.116615 0.056008399 0.711496 4292066459
-0.079953797 0.059012797 0.70693403 4286211656
-0.070570901 0.071754798 0.71597701 4287264851
-0.065922998 0.0718918 0.71574998 4287066955
0.0204142 0.085411601 0.70890397 4287265876
-0.138972 0.078613505 0.71300703 4291409568
-0.010687999 0.098273695 0.73379403 4287792228
-0.047760397 0.112458 0.748882 4286739022
-0.097762004 0.112733 0.74744099 4288384625
-0.0376978 0.12577499 0.75484902 4288779129
-0.0241185 0.13480601 0.76137 4288252520
-0.056137402 0.13072099 0.75219297 4287658069
-0.113366 0.14989701 0.77739298 4288647811
-0.059583399 -0.025939301 0.75747198 4292527005
-0.016933201 0.00763227 0.74680799 4292132749
-0.050314203 0.0068760999 0.69286001 4292658849
-0.121979 0.0127858 0.78950095 4292132774
-0.078971297 0.0129797 0.72316599 4293054125
-0.0517851 0.0175527 0.67681897 4292066198
-0.12825701 0.019987401 0.78816497 4292462509
-0.084944099 0.019143401 0.722036 4292987560
-0.075797796 0.019249201 0.70886296 4292263320
-0.051119801 0.0211899 0.67066699 4292724644
-0.091629304 0.023785101 0.72620499 4292921253
-0.14613499 0.029682301 0.79904699 4293451991
-0.11892501 0.0291734 0.75845897 4292460962
-0.104504 0.030373599 0.73277003 4292790438
-0.121633 0.035398901 0.75243402 4292263840
-0.098874003 0.0344528 0.71891499 4292329632
-0.11718 0.0374473 0.74227804 4292593315
-0.118022 0.039907798 0.73965198 4292658337
-0.052173402 0.0409334 0.69414502 4285092914
-0.107987 0.041127998 0.722992 4292198048
-0.110072 0.043140203 0.72285998 4292263324
-0.147227 0.049924001 0.76774299 4292726718
-0.124416 0.048090599 0.73497301 4292065945
-0.062293001 0.049668901 0.699498 4286013760
-0.12476899 0.050120603 0.732324 4291869079
-0.112224 0.051215902 0.71220601 4292132253
-0.059739701 0.059889 0.70721197 4286474825
-0.0078760302 0.061716203 0.69022501 4287396940
-0.055027001 0.062816203 0.70778102 4286672457
-0.149298 0.0622316 0.75138801 4293319376
-0.017062401 0.068399496 0.71070695 4286079550
-0.082536399 0.065366 0.71143001 4285948224
-0.017448699 0.069909602 0.71238798 4286079552
-0.0079586999 0.075102597 0.716883 4286540614
-0.0092305494 0.080509201 0.71982503 4286936914
-0.0026240202 0.081550203 0.72191 4286343245
-0.0588817 0.076818295 0.719082 4287396695
-0.036837798 0.080305003 0.72088099 4286936921
-0.034249 0.080512099 0.72124499 4287529053
-0.00043306602 0.083157703 0.72183198 4286541393
-0.0366452 0.082559898 0.72234601 4287199839
-0.13013901 0.074877501 0.70886499 4289041787
-0.11267 0.080733098 0.72428602 4286606675
-0.0017408399 0.090744205 0.72733301 4287002714
0.0353432 0.093377002 0.71829903 4289696332
-0.098819301 0.092891499 0.73173898 4287134041
-0.119349 0.101882 0.74093103 4288515967
-0.116768 0.102252 0.74076003 4288318833
-0.114839 0.102017 0.74090302 4287857514
-0.11256 0.102384 0.74121195 4287002969
-0.0065759099 0.113348 0.74397898 4287661164
-0.0286218 0.11495201 0.74735099 4288055137
-0.112458 0.108031 0.74442297 4287331680
-0.058884602 0.132304 0.75252098 4288514928
-0.056917302 0.13331799 0.75373602 4287529060
-0.053693499 0.14081301 0.76818401 4288186472
-0.10732 0.139658 0.76738 4288647272
-0.071162403 0.15142301 0.77544099 4287989342
-0.057666901 -0.025219601 0.75220799 4292790436
-0.064045899 -0.0102204 0.738612 4292592803
-0.091872104 0.0157033 0.73885697 4292723105
-0.141601 0.023131799 0.80336601 4292134313
-0.11459 0.0220167 0.762595 4292724905
-0.052886799 0.0216242 0.67154795 4292527520
-0.123742 0.024785601 0.77265 4292133282
-0.14374201 0.0293328 0.79512399 4292529076
-0.074013904 0.028115802 0.69280201 4292065942
-0.12606899 0.038018502 0.75592899 4292263581
-0.119959 0.0401913 0.74188095 4292461989
-0.051708099 0.043611597 0.69446802 4285356089
-0.098140702 0.043084599 0.70558101 4291934357
-0.022723801 0.046614103 0.68342698 4287130140
-0.10973001 0.0511766 0.70665598 4292131994
-0.0122502 0.057468202 0.68915898 4287002183
-0.125239 0.058784902 0.72210103 4292000666
-0.096323304 0.056541 0.69109601 4285817399
-0.0686417 0.070347197 0.71406502 4287067473
-0.063509502 0.072239898 0.71597701 4286935370
-0.048575699 0.079642899 0.72164899 4287331164
-0.00016915999 0.085015096 0.72338396 4286739028
0.00068915199 0.089922696 0.72709805 4287266146
-0.098245598 0.088107005 0.72900701 4287134555
-0.104833 0.10635 0.743321 4288186734
-0.060333598 0.111399 0.74813396 4286607953
-0.000861354 0.120676 0.74894702 4289043070
-0.073564902 0.14838001 0.77330101 4288252775
-0.0560073 -0.024189301 0.74619597 4292855715
-0.069684498 -0.0183536 0.75959897 4292724388
-0.051711701 -0.0123645 0.72294199 4292395160
-0.086098701 -0.0117043 0.773839 4292593577
-0.085014798 -0.0096241394 0.76665598 4292724389
-0.051793501 -0.0068542501 0.713036 4293053350
-0.0402002 0.0064832 0.70651096 4292460945
-0.111968 0.0117234 0.77564204 4292790955
-0.110505 0.0132759 0.77059495 4292527527
-0.124955 0.0177464 0.78709 4292725164
-0.111606 0.0191563 0.76396102 4292659114
-0.107908 0.024713499 0.74960697 4292329379
-0.147071 0.0282302 0.802347 4293978599
-0.068058796 0.0260818 0.68627304 4292197786
-0.055663798 0.025604999 0.66941202 4292658342
-0.055917099 0.0288889 0.66990304 4287724890
-0.133836 0.032189302 0.77476501 4292329635
-0.057896901 0.031698599 0.67106897 4286277696
-0.083722897 0.036422297 0.69335198 4292263577
-0.1415 0.0415029 0.77331895 4292265127
-0.085749395 0.038918301 0.69226205 4292329631
-0.133496 0.045083597 0.75378001 4292395935
-0.0393783 0.049264599 0.69787699 4285619001
-0.032571997 0.050884999 0.70028901 4286080070
-0.016785499 0.0549259 0.68785304 4287067204
-0.0143358 0.055159401 0.68851203 4286869819
-0.13300799 0.057303499 0.73595899 4291738009
-0.082737699 0.0594933 0.70850301 4285948479
-0.0096648596 0.061487399 0.691221 4287265354
-0.0069863 0.063346997 0.691787 4287331145
-0.00469347 0.064060897 0.69350499 4287396425
-0.131419 0.059284698 0.72889203 4291935134
-0.063949004 0.063182101 0.70962596 4286671945
-0.0071184603 0.0642263 0.69329602 4287265094
-0.0045089303 0.067283899 0.69505399 4287067459
-0.0682026 0.067497395 0.712547 4287001421
0.0030429298 0.072229199 0.69766498 4287396691
0.0146595 0.078248799 0.70458001 4287591979
-0.14591499 0.070496 0.73417604 4291738265
0.012420201 0.081600599 0.70533502 4287463263
-0.0047590197 0.083376102 0.72146899 4286672981
-0.0045309002 0.086708397 0.72482395 4286672979
-0.00254355 0.085249603 0.72346503 4286410322
0.016219102 0.086907402 0.71022999 4292532181
-0.112105 0.078688301 0.72323197 4286540623
-0.032153301 0.0998253 0.73534304 4287594585
-0.029712901 0.099762298 0.73519897 4287463004
-0.069738701 0.099523999 0.73631501 4288186218
-0.051715098 0.111002 0.74988598 4285160260
-0.044862203 0.116446 0.74901396 4287989087
-0.054956101 0.129151 0.75450897 4288712289
-0.084058098 0.135344 0.76337099 4288712813
-0.061274502 0.13838699 0.76493901 4288120938
-0.0226363 0.14265101 0.76750797 4288384358
-0.081650801 0.13698 0.76490098 4288252779
-0.036530301 0.15367101 0.77614897 4287857502
-0.0486334 -0.034335602 0.75585997 4292264092
-0.068275899 -0.0154616 0.75310302 4292790438
-0.049558397 -0.00697118 0.71114504 4293053608
-0.094916902 0.0022469398 0.763722 4292790956
-0.052904401 0.0046429001 0.69710302 4292262806
-0.024883801 0.0099907303 0.72682101 4292461200
-0.101268 0.0114584 0.75759101 4292593321
-0.096581802 0.010879 0.75217497 4292922028
-0.095967501 0.015835701 0.74412501 4292592035
-0.080180898 0.0160194 0.72063899 4292987816
-0.051341899 0.0237999 0.66777003 4291672223
-0.132866 0.0283456 0.77942699 4292197793
-0.057120901 0.025999099 0.671462 4292592544
-0.053653702 0.0257672 0.668383 4290619546
-0.0444749 0.027527001 0.67114699 4287523347
-0.084714897 0.028475901 0.707219 4292461477
-0.080610804 0.032716203 0.69389802 4292131480
-0.0736802 0.034264799 0.68030703 4292330140
-0.13297099 0.043288898 0.75676 4292198045
-0.026797799 0.046592001 0.68062401 4286870084
-0.14050201 0.047834802 0.76007503 4291934618
-0.090941705 0.044590499 0.692375 4292461215
-0.088974506 0.046457198 0.68781894 4292658857
-0.115344 0.0498049 0.71838897 4292263835
-0.055568803 0.052896399 0.700822 4286145348
-0.0271843 0.056117199 0.70320302 4285553208
-0.0121045 0.055994302 0.689354 4287000103
-0.118261 0.052869201 0.71923 4292264098
-0.109875 0.053181302 0.70315504 4292198047
-0.070761196 0.064561099 0.71021897 4287133516
-0.070660204 0.066889599 0.71201897 4287198543
-0.068040401 0.069483303 0.71460998 4287001677
-0.067087896 0.083443001 0.72510701 4287594850
0.037798401 0.097038902 0.71833599 4288578626
-0.092855901 0.102559 0.74071503 4288318063
-0.067796499 0.106596 0.74350595 4287791203
-0.058430899 0.11101 0.74858099 4286147914
-0.0373987 0.115873 0.74733198 4288648048
-0.0352473 0.11728299 0.74881095 4288120426
-0.039961603 0.119874 0.75112998 4288451186
-0.037042998 0.11953501 0.75054497 4288647280
-0.0293417 0.120595 0.75099105 4288055138
-0.0323544 0.123194 0.75233698 4287594588
-0.0293184 0.12512501 0.754471 4288186985
-0.066824205 0.13190299 0.76089299 4288054886
-0.055490799 0.13336 0.75462598 4286081085
-0.047436297 0.14755499 0.77103901 4288318052
-0.050398998 -0.0310816 0.75346994 4292527265
-0.051249802 -0.028868901 0.74826396 4292724387
-0.045559797 -0.0231311 0.73908699 4292329114
-0.071625799 -0.018076001 0.761235 4292527523
-0.0480146 -0.0116313 0.72189695 4292657824
-0.098089702 -0.0011972899 0.774055 4292593064
-0.092641897 -0.000348339 0.76406401 4293053612
-0.0532494 0.0022573199 0.70018905 4292657822
-0.0505636 0.0019640301 0.69985104 4292395168
-0.088350505 0.00194961 0.75521898 4292526756
-0.046809699 0.016823299 0.679883 4292658324
-0.051624198 0.018214799 0.675565 4292198045
-0.121099 0.024889799 0.76849401 4292527268
-0.11703701 0.0271555 0.75817299 4292658086
-0.098282702 0.034462102 0.71760601 4292526497
-0.032816 0.042259201 0.67801899 4286672703
-0.14191 0.043912202 0.76835603 4292395428
-0.030142799 0.045507703 0.68112797 4286541374
-0.0286064 0.045443501 0.68003303 4286870338
-0.0792377 0.041890498 0.681714 4290751124
-0.076988406 0.042563703 0.68146002 4287198541
-0.023673201 0.047160901 0.68249905 4286737458
-0.0152303 0.053819802 0.68725801 4286933545
-0.128031 0.051012199 0.73596001 4291934872
-0.0857279 0.048775002 0.68538398 4286672453
-0.019861501 0.062514499 0.70705104 4285947968
-0.0172952 0.0652541 0.70886797 4285947965
0.00045398501 0.069851503 0.69480401 4287462478
0.0176042 0.077502802 0.70756096 4291143527
-0.032146197 0.0772532 0.71883303 4287265876
0.0149655 0.081720904 0.706806 4287331416
-0.116677 0.082494602 0.72595698 4287068765
-0.109963 0.086589299 0.728549 4286410065
-0.00138457 0.111645 0.74287802 4288582780
-0.00010459 0.119108 0.74802697 4288977274
-0.087367997 0.118799 0.75233603 4288055147
-0.058049597 0.126628 0.75323796 4287923291
-0.053007197 0.12706301 0.754269 4289568364
-0.049316399 0.129207 0.757837 4288251748
-0.0541653 -0.0046369201 0.71299905 4292988074
-0.052437402 -0.0051017399 0.71064299 4293119142
-0.0588267 -0.0022036601 0.71624798 4293054386
-0.049159199 -0.0021575 0.70675099 4292921763
-0.10193 0.0038105098 0.77277398 4292922287
-0.051692601 0.0085225692 0.69011402 4292527520
-0.103757 0.0126742 0.76002401 4292593062
-0.060633201 0.023685601 0.67800403 4292329368
-0.124631 0.0290001 0.76541805 4292724908
-0.123763 0.033979502 0.75835305 4292197789
-0.127932 0.0360303 0.76144302 4292132251
-0.103419 0.035912499 0.72338003 4292329118
-0.105321 0.038984701 0.721775 4292329632
-0.092724599 0.039921001 0.70157003 4292131994
-0.13579601 0.0453308 0.75693798 4292001181
-0.0435974 0.063081399 0.70873702 4286738251
-0.0280341 0.063686199 0.70796102 4285751360
0.000607708 0.068589106 0.69694799 4287199564
-0.10552201 0.061803199 0.69556999 4286146367
0.035896301 0.079946503 0.73466402 4292264333
-0.109566 0.0997997 0.73914695 4287529577
-0.0123409 0.126139 0.754412 4288515440
-0.085086897 0.12263 0.75562298 4288779636
-0.087441705 0.12722 0.75805402 4288252528
-0.054087799 0.13036099 0.75328898 4287789906
-0.064228602 0.13331799 0.76136601 4288318057
-0.058899201 0.13690199 0.76321304 4288713079
-0.0841325 0.139918 0.76731098 4288515688
-0.068777606 0.14770199 0.77190697 4288252263
-0.048357699 -0.018293601 0.73004496 4292790434
-0.049306199 -0.0149301 0.72508597 4292593056
-0.048314098 -0.010159099 0.71976703 4292789922
-0.085727699 -0.0053130202 0.76230699 4292922280
-0.048693001 -0.00363382 0.70735604 4293118629
-0.070442498 0.00029740599 0.72964102 4292591518
-0.0649345 0.00040883699 0.72147399 4292856490
-0.079142101 0.0023966301 0.73938799 4292921770
-0.077703297 0.0038984302 0.73542798 4292592290
-0.127386 0.0108489 0.79969394 4293584867
-0.105794 0.013356 0.762061 4292592293
-0.049368899 0.017619601 0.67658198 4292526492
-0.029378001 0.022874501 0.70102501 4292592271
-0.0484364 0.024228001 0.66962999 4289170515
-0.094302699 0.026030099 0.72647899 4292659108
-0.086753406 0.028053101 0.71183896 4292658340
-0.091569699 0.0304591 0.71362597 4292460963
0.0027059801 0.039687198 0.73282701 4292526993
-0.14146899 0.039187498 0.77636403 4292199077
-0.064632498 0.036128897 0.67532301 4285882680
-0.126551 0.040823299 0.75222099 4292198818
-0.091363505 0.0387454 0.70146 4292131997
-0.068601504 0.038412701 0.67746902 4285751352
-0.075775295 0.041190401 0.68090397 4288580461
-0.106445 0.045033701 0.71323299 4292395935
-0.084192902 0.0438742 0.68415898 4292593324
-0.076964796 0.043891102 0.68055904 4285947955
-0.099690005 0.046855401 0.70022601 4292329371
-0.083019398 0.046188202 0.68403006 4287329869
-0.0674216 0.052381601 0.70220697 4286277192
-0.141579 0.0537779 0.75405604 4292263839
-0.087233596 0.065668605 0.712138 4286277446
0.0044850796 0.097660005 0.732737 4287924075
-0.0185411 0.109219 0.742311 4287464559
-0.069389902 0.130549 0.75953805 4288186471
-0.070911698 0.14642701 0.77192295 4288186466
-0.050027002 0.0084709097 0.69048202 4292461474
-0.129832 0.0135188 0.79987299 4293056976
-0.0555824 0.0272335 0.670084 4290685334
-0.024799101 0.0489554 0.68315601 4286738498
-0.13149899 0.078857198 0.70994002 4286211897
0.0074082799 0.098570503 0.73328602 4287792489
-0.102835 0.089523204 0.73026896 4287529060
-0.039889902 0.105332 0.74150199 4283121707
-0.039953001 0.114969 0.74781704 4288449902
-0.118811 0.107789 0.745336 4288450431
-0.033393003 0.118531 0.75003999 4287791451
-0.029549802 0.11835 0.74900097 4287989345
-0.056356601 0.14087199 0.76797402 4288252009
-0.11321399 0.143323 0.77211499 4288582015
-0.064143203 -0.0221585 0.75794101 4292789666
-0.088255398 -0.010416999 0.77186501 4292395941
-0.089708798 -0.00326421 0.76464897 4293053359
-0.064184405 0.0064917896 0.711622 4293053093
-0.095506303 0.023639601 0.73231596 4292922031
-0.137233 0.027384199 0.789482 4292462247
-0.076565005 0.0255563 0.70019704 4292065689
-0.010247 0.0328741 0.72084004 4292329616
-0.079255 0.0275429 0.70103198 4292131735
-0.046699401 0.0297451 0.67004102 4286672446
-0.057971902 0.031688701 0.67150098 4286080057
-0.0373495 0.035873797 0.675044 4286803767
-0.094592303 0.036202703 0.70901597 4292263581
-0.037696604 0.037769403 0.674559 4286738238
0.0024261798 0.045246497 0.72456199 4292461459
-0.113126 0.039233502 0.73248398 4292526494
-0.0048768301 0.046717301 0.709692 4292263299
-0.079293601 0.0436581 0.68175799 4288119901
0.0247922 0.061122797 0.74237502 4291869572
-0.0054657101 0.062763497 0.69328302 4287329855
-0.084982403 0.063112602 0.70984 4286079552
-0.0206035 0.068928398 0.712273 4286211396
-0.123296 0.0621062 0.71128601 4291935389
-0.0211959 0.070883006 0.71340102 4286277444
-0.020425601 0.073211901 0.71515399 4286343237
0.0151108 0.075428098 0.70685303 4291208292
-0.0240674 0.081362396 0.721416 4287265364
-0.12535399 0.074231297 0.70534599 4286343483
-0.0090885404 0.100387 0.736009 4287792231
-0.0038383801 0.100989 0.736103 4287660387
-0.11895201 0.093762703 0.73452502 4288122750
-0.075465202 0.097332098 0.73519397 4288581745
-0.092005201 0.104745 0.741445 4288252525
-0.037602901 0.111012 0.743981 4288713326
-0.0796372 0.117993 0.75056404 4288186731
-0.0623261 0.125202 0.75505203 4288186213
-0.048907701 0.13440801 0.76193905 4288186471
-0.050964098 0.137793 0.76453495 4288054368
-0.044004001 0.15527001 0.77799797 4288581740
-0.0265901 0.159315 0.77926701 4287857758
-0.069872707 -0.026745301 0.76969099 4294572022
-0.058756601 -0.018333599 0.74234599 4292329375
-0.056793898 -0.0022155801 0.712412 4293054123
-0.090696402 0.0105386 0.74396098 4292855721
-0.048836499 0.0109309 0.68589801 4292263577
-0.0715781 0.0126054 0.71274596 4292855717
-0.068297997 0.014728799 0.70428801 4292263325
-0.078317903 0.017329399 0.71450895 4292658856
-0.0573879 0.018976102 0.68008798 4292131735
-0.066364601 0.021530898 0.69157803 4292461473
-0.14342399 0.025099801 0.80041403 4292199595
-0.080340602 0.026111299 0.70548201 4292592551
-0.070841298 0.025048701 0.69283897 4292065943
-0.121423 0.0291203 0.761576 4292593574
-0.062811799 0.0273603 0.67686701 4292395936
-0.042219102 0.028368 0.672548 4289101596
0.034786399 0.043042902 0.78662097 4292066437
-0.0219119 0.0342687 0.69993401 4292197252
0.0111542 0.040232498 0.749475 4292198543
-0.091448598 0.032233298 0.711299 4292526757
-0.059653703 0.0317409 0.67229605 4287067472
-0.096809603 0.040375199 0.707376 4292133026
-0.080742896 0.043635502 0.68297398 4289501830
-0.0135147 0.052522201 0.68929499 4289430825
-0.0098999208 0.051905498 0.69403195 4292460425
-0.098111294 0.047867101 0.69582397 4292264610
-0.00318954 0.066478699 0.69437903 4287396427
-0.121789 0.064427398 0.70502198 4292264609
-0.014822099 0.077839106 0.71870202 4286408004
-0.0739154 0.0748844 0.71854699 4287134037
-0.00600112 0.084495001 0.723248 4286739032
-0.0079025105 0.087733701 0.72571599 4287200350
0.0260869 0.093305804 0.71220398 4288783258
0.0022091998 0.111042 0.74313599 4288582513
-0.0303666 0.136976 0.76314896 4288647797
-0.0151894 0.139722 0.76514101 4288844915
-0.075595498 0.154282 0.778018 4288120677
-0.022531999 0.15879101 0.77902198 4287463509
-0.059786402 -0.016169399 0.74092698 4292329118
-0.062533602 -0.0122408 0.73945898 4292527011
-0.0795196 -0.0053442302 0.75271398 4292592544
-0.10217199 -0.00067940803 0.78025097 4292594358
-0.087438099 0.0080029899 0.74509698 4292856755
-0.098404296 0.0092171403 0.75846505 4292527788
-0.096950106 0.0166103 0.74537402 4292527270
-0.106441 0.019265302 0.75599402 4292791214
-0.066876404 0.019305401 0.69448197 4292395171
-0.053853098 0.026866699 0.66927099 4289369723
-0.034610298 0.038192 0.67666 4286935352
0.0054798396 0.045694698 0.73057097 4292198027
-0.023850201 0.0452784 0.682823 4287327253
-0.093775801 0.044122398 0.69648904 4292329888
-0.0150575 0.049220599 0.69041497 4292261501
-0.0123265 0.053846601 0.68988001 4289167912
-0.106463 0.049244799 0.70573795 4292131997
-0.0283453 0.056786597 0.70370901 4285750847
-0.125596 0.055023603 0.72646195 4292001177
-0.146469 0.0598851 0.75160402 4292396455
-0.13881899 0.060491402 0.740098 4291540632
-0.084076799 0.0614882 0.70836401 4286013499
-0.0234045 0.068360299 0.71191603 4286343234
-0.0202257 0.067449801 0.71078598 4286079554
0.028754899 0.077245302 0.72673702 4292132233
-0.15080099 0.067181394 0.74259001 4293254614
-0.147962 0.072797403 0.73195201 4291673248
-0.128518 0.075764 0.70771301 4286606917
-0.0102887 0.0895992 0.72700799 4287595104
0.0298976 0.091128998 0.71285903 4287659328
-0.11371399 0.085200302 0.72692603 4286936411
-0.017644599 0.100987 0.73716497 4287463008
-0.103975 0.0940248 0.73412299 4287726442
-0.049216598 0.114309 0.74896997 4287659607
-0.064295895 0.117489 0.74997103 4288384361
-0.0591207 0.121468 0.752675 4287463777
-0.046021301 -0.032135602 0.75352502 4292527777
-0.046324901 -0.0154134 0.72687 4292329882
-0.089502297 -0.0121788 0.777053 4293451481
-0.045580298 -0.0093767997 0.72136104 4292263317
-0.061094601 -0.0069665099 0.72772497 4292658083
-0.027205499 -0.0050121699 0.74417996 4291737992
-0.035049301 -0.00307311 0.72816998 4292329874
-0.0113495 -0.00116061 0.76947302 4292132236
-0.059669998 0.0020003701 0.71032101 4293119402
-0.044654801 0.0066540497 0.698156 4292526741
-0.0083724698 0.011595801 0.75333899 4292264334
-0.078534894 0.0080704698 0.731929 4292790187
-0.106476 0.010083999 0.76881099 4292593068
-0.068398595 0.0127809 0.707789 4292394908
-0.13283901 0.0176445 0.79867899 4292331953
-0.073200896 0.0174181 0.70743704 4292394141
-0.093609296 0.030177401 0.71771801 4292460194
0.0154768 0.064347602 0.72162098 4292263821
-0.075482495 0.0675864 0.71235198 4286343492
-0.0191841 0.072237201 0.71377897 4286211395
-0.133334 0.067736 0.71805298 4291869341
0.031798702 0.088386707 0.71615899 4292197256
-0.084221706 0.083263196 0.72553098 4287068509
-0.094356798 0.085288696 0.727081 4287661414
0.0041805701 0.101868 0.73540401 4288253552
-0.095076799 0.135653 0.76426601 4288646764
-0.041359499 0.14086901 0.76721001 4289174394
-0.089272797 0.139548 0.76767904 4288317799
-0.0483132 -0.032381501 0.753295 4292396450
-0.048020802 -0.0149105 0.72561496 4292592543
-0.050671503 -0.0078499597 0.71644098 4292987558
-0.050375499 -0.0053874799 0.71165401 4293185453
-0.047961701 0.00022809701 0.70187801 4292592025
-0.10847899 0.022006901 0.75414002 4292528045
-0.100055 0.0236778 0.73976701 4292791214
-0.039613601 0.037665099 0.67487502 4286409018
-0.115456 0.0402124 0.73632598 4292526751
-0.025310699 0.0434414 0.68218595 4288115742
-0.098038204 0.053264901 0.69203997 4291080608
-0.00189152 0.067426801 0.69569701 4287396171
-0.01131 0.079020701 0.71873796 4286540620
0.0293254 0.082223393 0.72054398 4292199056
-0.0086132502 0.083136201 0.72298402 4287265884
-0.041395802 0.084978998 0.725339 4287463005
0.0284588 0.088347301 0.71316898 4289630790
-0.0129722 0.097702205 0.73310697 4287923301
-0.0088020405 0.103685 0.73764098 4287923561
-0.0367737 0.105007 0.74055403 4287199839
-0.101418 0.102535 0.74036801 4287923298
-0.067053594 0.127639 0.75765902 4288252008
-0.068071194 -5.20221e-05 0.72806799 4292658084
-0.044001598 0.017880801 0.68356097 4292658319
-0.0322439 0.026336299 0.69133699 4292593045
-0.0827232 0.029570298 0.70311499 4292066201
-0.012396 0.037678503 0.710495 4292592270
-0.028389201 0.039493501 0.68108696 4290483264
0.035291698 0.051151 0.77526504 4292000903
0.022781799 0.062522903 0.73751205 4292133267
0.0194836 0.076549895 0.71670502 4292394641
0.0159795 0.077501297 0.70588899 4289760825
0.019367399 0.079415202 0.70835602 4291208548
-0.0433653 0.083100505 0.72371304 4287660638
-0.030075701 0.11361 0.74616301 4287922784
-0.0115079 0.141451 0.76597804 4288383848
-0.063788801 -0.024063298 0.75889003 4292527264
-0.0311461 -0.011913201 0.74777502 4292066702
-0.0306616 -0.0069167498 0.74113101 4292330137
-0.016785201 0.0021961802 0.75297302 4291737222
-0.067453302 0.0044573499 0.71965802 4293054384
0.027066 0.0410816 0.77438599 4292263309
-0.039542601 0.030520398 0.67392796 4289562149
0.0182938 0.072355695 0.71727699 4292461460
0.0054928497 0.073525004 0.69881898 4287331666
