# .PCD v0.7 - Point Cloud Data file format
VERSION 0.7
FIELDS x y z rgba
SIZE 4 4 4 4
TYPE F F F U
COUNT 1 1 1 1
WIDTH 1274
HEIGHT 1
VIEWPOINT 0 0 0 1 0 0 0
POINTS 1274
DATA ascii
0.24099001 0.211 0.20100001 4289895793
0.241824 0.20900001 0.20100001 4288119398
0.241824 0.21097301 0.20100001 4288119398
0.241 0.211 0.201023 4286869072
0.250505 0.20900001 0.20100001 4280557596
0.25099999 0.20900001 0.20189901 4279900178
0.25299999 0.20900001 0.20233999 4279307522
0.255 0.20900001 0.201646 4278715392
0.24963699 0.211 0.20100001 4282861126
0.24963699 0.211513 0.20100001 4282861126
0.32142898 0.20100001 0.153 4288381009
0.32142898 0.20100001 0.15334801 4288381009
0.32300001 0.20203501 0.153 4286867248
0.258086 0.20100001 0.20100001 4287722839
0.258086 0.20100001 0.201976 4287722839
0.32455599 0.20299999 0.153 4287655474
0.32455599 0.20299999 0.154283 4287655474
0.259 0.201612 0.20100001 4287000386
0.32499999 0.20329201 0.153 4286076445
0.26100001 0.202903 0.20100001 4286802753
0.32699999 0.204677 0.153 4285550093
0.259 0.20299999 0.202728 4289301593
0.26115599 0.20299999 0.20100001 4287066441
0.26115599 0.20299999 0.201124 4287066441
0.26300001 0.204146 0.20100001 4286144055
0.257 0.198668 0.199 4286802234
0.25750202 0.199 0.199 4287460434
0.25750202 0.199 0.19938299 4287460434
0.259 0.199945 0.199 4286671168
0.26449499 0.221 0.221 4286343232
0.26449499 0.221 0.22213499 4286343232
0.237248 0.21699999 0.197 4285751107
0.237248 0.217659 0.197 4285751107
0.257 0.224949 0.221 4279768329
0.236562 0.219 0.197 4288317288
0.26499999 0.22133 0.221 4286670397
0.237 0.219 0.198103 4283779894
0.26699999 0.222666 0.221 4286539580
0.24450199 0.21699999 0.197 4282992709
0.26751599 0.223 0.221 4286408249
0.26751599 0.223 0.22143401 4286408249
0.243718 0.219 0.197 4282729023
0.243718 0.22042599 0.197 4282729023
0.26899999 0.223933 0.221 4285815601
0.244067 0.193 0.199 4291341948
0.245 0.193 0.20018801 4289961583
0.24699999 0.193 0.200443 4288712551
0.235935 0.221 0.197 4287594342
0.24433701 0.19499999 0.199 4290881651
0.235147 0.223 0.197 4286014288
0.235147 0.223285 0.197 4286014288
0.245 0.196732 0.199 4289763953
0.24261701 0.221 0.197 4283649349
0.249907 0.193 0.199 4287858019
0.249907 0.193 0.199559 4287858019
0.243 0.221 0.19822301 4284965985
0.25099999 0.19386999 0.199 4287855440
0.241776 0.223 0.197 4285163360
0.25222501 0.19499999 0.199 4287528017
0.25222501 0.19499999 0.20028301 4287528017
0.25299999 0.195664 0.199 4287132233
0.32100001 0.222341 0.17900001 4286933306
0.322207 0.223 0.17900001 4290747488
0.322207 0.223 0.179896 4290747488
0.32300001 0.223442 0.17900001 4288314971
0.32499999 0.22474299 0.17900001 4287657289
0.32100001 0.219081 0.175 4287392825
0.32300001 0.22019701 0.175 4287524932
0.32100299 0.20900001 0.163 4286406703
0.32100299 0.20900001 0.16300301 4286406703
0.32300001 0.210357 0.163 4285090329
0.32401401 0.211 0.163 4288179996
0.32401401 0.211 0.163737 4288179996
0.32499999 0.21164101 0.163 4286866719
0.32699999 0.212927 0.163 4287393339
0.24442799 0.197 0.20100001 4291013498
0.245 0.198526 0.20100001 4289762928
0.245254 0.199 0.20100001 4289039721
0.245254 0.20053901 0.20100001 4289039721
0.245254 0.20053901 0.201951 4289039721
0.252664 0.197 0.20100001 4287528278
0.252664 0.197 0.202756 4287528278
0.25299999 0.19726899 0.20100001 4286605381
0.255 0.198864 0.20100001 4286539588
0.25516799 0.199 0.20100001 4286736440
0.25516799 0.199 0.201179 4286736440
0.240389 0.213 0.20100001 4288448619
0.239677 0.215 0.20100001 4287988327
0.239677 0.21673 0.20100001 4287988327
0.289 0.200295 0.177 4287330124
0.241 0.213 0.20263201 4287068766
0.257 0.19389001 0.193 4287263048
0.24779101 0.213 0.20100001 4285886574
0.24779101 0.214338 0.20100001 4285886574
0.258701 0.19499999 0.193 4288384352
0.258701 0.19499999 0.194336 4288384352
0.246498 0.215 0.20100001 4284570449
0.259 0.195199 0.193 4287525703
0.24699999 0.215 0.202756 4284308314
0.26100001 0.196413 0.193 4287065925
0.243343 0.205 0.20100001 4287988325
0.243343 0.205929 0.20100001 4287988325
0.24262601 0.207 0.20100001 4289106286
0.243 0.207 0.201747 4287528804
0.32100001 0.20727001 0.161 4287263294
0.25099999 0.208119 0.20100001 4279964678
0.32300001 0.208698 0.161 4285221918
0.25299999 0.207884 0.20100001 4279306240
0.255 0.20833701 0.20100001 4278452224
0.32100001 0.214066 0.169 4285419527
0.32253101 0.215 0.169 4287916309
0.32253101 0.215 0.170054 4287916309
0.32300001 0.21528 0.169 4288116785
0.32499999 0.216543 0.169 4287394113
0.244922 0.20100001 0.205 4290816122
0.25791597 0.21699999 0.221 4286077483
0.25791597 0.21699999 0.22182299 4286077483
0.245 0.201205 0.205 4289434730
0.259 0.217685 0.221 4285288228
0.245805 0.20299999 0.205 4288777834
0.26100001 0.218806 0.221 4286537780
0.25367701 0.20100001 0.205 4286473530
0.25367701 0.20100001 0.205632 4286473530
0.259 0.219 0.22273199 4286276912
0.255 0.20196401 0.205 4286735675
0.261314 0.219 0.221 4286076712
0.261314 0.219 0.22126 4286076712
0.256423 0.20299999 0.205 4287591242
0.256423 0.20299999 0.20622301 4287591242
0.26300001 0.220103 0.221 4286472756
0.257 0.20510699 0.207 4287132231
0.259 0.206449 0.207 4286473790
0.25985101 0.207 0.207 4286407740
0.25985101 0.207 0.207718 4286407740
0.26100001 0.20778799 0.207 4286013496
0.257 0.21313499 0.21699999 4285814562
0.259 0.214541 0.21699999 4285946409
0.25968 0.215 0.21699999 4286077231
0.25968 0.215 0.217547 4286077231
0.26100001 0.215785 0.21699999 4285616933
0.257 0.209941 0.213 4286276666
0.25857103 0.211 0.213 4285882941
0.25857103 0.211 0.214366 4285882941
0.259 0.21131301 0.213 4286079028
0.26100001 0.212624 0.213 4285814575
0.32100001 0.202217 0.155 4286801973
0.32223099 0.20299999 0.155 4288380753
0.32223099 0.20299999 0.15594201 4288380753
0.32300001 0.203558 0.155 4286933041
0.32100001 0.22063901 0.177 4286932521
0.32499999 0.204988 0.155 4285880101
0.257 0.201896 0.20299999 4286802492
0.25862297 0.20299999 0.20299999 4288053853
0.25862297 0.20299999 0.204457 4288053853
0.259 0.20324099 0.20299999 4287000133
0.26100001 0.204469 0.20299999 4286210871
0.257 0.20026401 0.20100001 4286735927
0.242615 0.20900001 0.20299999 4288579948
0.243 0.20900001 0.20376299 4286867524
0.26186201 0.221 0.223 4286144049
0.26186201 0.221 0.223847 4286144049
0.238039 0.21699999 0.199 4288250984
0.24185699 0.211 0.20299999 4287987811
0.26300001 0.22167701 0.223 4286276150
0.23743699 0.219 0.199 4285160005
0.23743699 0.22005099 0.199 4285160005
0.25099999 0.2098 0.20299999 4278979073
0.26300001 0.223 0.224885 4286277183
0.24490401 0.21699999 0.199 4284899415
0.25299999 0.209389 0.20299999 4279438596
0.26499999 0.22285999 0.223 4286802498
0.245 0.21699999 0.1992 4285361258
0.255 0.20976801 0.20299999 4279043328
0.26522902 0.223 0.223 4286670653
0.26522902 0.223 0.223223 4286670653
0.24412 0.219 0.199 4283649865
0.249643 0.211 0.20299999 4280953128
0.249643 0.21153501 0.20299999 4280953128
0.26699999 0.22409199 0.223 4286145849
0.23668401 0.221 0.199 4288778870
0.237 0.221 0.199745 4281345053
0.23602401 0.223 0.199 4288647279
0.243238 0.221 0.199 4284439639
0.243238 0.22148301 0.199 4284439639
0.24231 0.223 0.199 4283782220
0.243 0.223 0.200379 4285557866
0.245 0.193655 0.20100001 4289698160
0.24699999 0.19349 0.20100001 4288514154
0.24389301 0.19499999 0.20100001 4291408002
0.245 0.19499999 0.202968 4290092917
0.24699999 0.19499999 0.202828 4288120158
0.249 0.19425301 0.20100001 4288450154
0.250274 0.19499999 0.20100001 4287594075
0.250274 0.19499999 0.201969 4287594075
0.25099999 0.195592 0.20100001 4287790675
0.243862 0.197 0.20299999 4291210107
0.244773 0.199 0.20299999 4291012985
0.32100001 0.208997 0.163 4286999613
0.245 0.199735 0.20299999 4289763693
0.250736 0.197 0.20299999 4287595107
0.250736 0.197 0.204496 4287595107
0.25099999 0.19720799 0.20299999 4287725137
0.25299999 0.198962 0.20299999 4287658831
0.25304499 0.199 0.20299999 4286407488
0.25304499 0.199 0.20304699 4286407488
0.255 0.200504 0.20299999 4286670654
0.32100001 0.223821 0.18099999 4287327808
0.32300001 0.22496 0.18099999 4287261760
0.32100001 0.21086 0.16500001 4286144565
0.321197 0.211 0.16500001 4288508981
0.321197 0.211 0.16518401 4288508981
0.32300001 0.212172 0.16500001 4285747991
0.257 0.19552401 0.19499999 4287394375
0.259 0.196824 0.19499999 4287328324
0.244168 0.205 0.20299999 4288646765
0.245 0.205 0.204427 4287200608
0.24354801 0.207 0.20299999 4287462233
0.24354801 0.208151 0.20299999 4287462233
0.24047901 0.215 0.20299999 4287856485
0.241157 0.213 0.20299999 4286606671
0.241157 0.21342599 0.20299999 4286606671
0.248197 0.213 0.20299999 4279307785
0.241 0.215 0.204145 4285092915
0.24706799 0.215 0.20299999 4284110677
0.24706799 0.215149 0.20299999 4284110677
0.32100001 0.21576101 0.171 4286010372
0.32300001 0.21698101 0.171 4286668573
0.257 0.214791 0.219 4286143271
0.25730202 0.215 0.219 4285945896
0.25730202 0.215 0.21926899 4285945896
0.259 0.21607299 0.219 4285485350
0.257 0.21154 0.215 4286144303
0.259 0.212898 0.215 4286406962
0.244177 0.20100001 0.207 4291079034
0.245 0.20244201 0.207 4290355572
0.257 0.20669 0.20900001 4286671425
0.24539 0.20299999 0.207 4289499755
0.24539 0.20299999 0.207655 4289499755
0.251645 0.20100001 0.207 4287329875
0.251645 0.20100001 0.207672 4287329875
0.257424 0.207 0.20900001 4286541123
0.257424 0.207 0.209369 4286541123
0.25299999 0.202108 0.207 4286342211
0.259 0.20804201 0.20900001 4286408255
0.254132 0.20299999 0.207 4286670142
0.254132 0.20299999 0.208142 4286670142
0.255 0.203629 0.207 4286604602
0.257 0.217896 0.223 4285551654
0.25866699 0.219 0.223 4285684011
0.25866699 0.219 0.22444299 4285684011
0.32100001 0.203932 0.15700001 4287524158
0.259 0.219216 0.223 4285353763
0.26100001 0.22045399 0.223 4285945645
0.257 0.203429 0.205 4287328581
0.259 0.204871 0.205 4286934339
0.243689 0.20900001 0.205 4286738260
0.243689 0.210465 0.205 4286738260
0.242778 0.211 0.205 4288645740
0.23762399 0.221 0.20100001 4288187503
0.23762399 0.22244501 0.20100001 4288187503
0.243 0.211 0.205557 4285026862
0.23677699 0.223 0.20100001 4288845429
0.25099999 0.21027699 0.205 4279964683
0.237 0.223 0.201519 4288321168
0.25299999 0.21011201 0.205 4279570180
0.244022 0.221 0.20100001 4283649351
0.255 0.210191 0.205 4278780672
0.24331799 0.223 0.20100001 4283716684
0.24331799 0.22378001 0.20100001 4283716684
0.25047299 0.211 0.205 4280820767
0.25047299 0.212414 0.205 4280820767
0.25099999 0.211 0.206908 4279241218
0.255 0.211 0.20614301 4279044352
0.238896 0.21699999 0.20100001 4289435774
0.23899999 0.21699999 0.201215 4287595371
0.23819999 0.219 0.20100001 4288053863
0.23899999 0.219 0.202658 4283251752
0.24563499 0.21699999 0.20100001 4284834657
0.24563499 0.21842101 0.20100001 4284834657
0.24461301 0.219 0.20100001 4283977801
0.245 0.219 0.201665 4285624686
0.25973499 0.221 0.22499999 4285616942
0.25973499 0.221 0.22572501 4285616942
0.26100001 0.221791 0.22499999 4285880115
0.26285902 0.223 0.22499999 4286210614
0.26300001 0.22308701 0.22499999 4286407741
0.26499999 0.22427601 0.22499999 4286276667
0.245 0.19503 0.20299999 4289895018
0.24699999 0.19514999 0.20299999 4288580461
0.249 0.195926 0.20299999 4288318570
0.244372 0.197 0.205 4291210366
0.32100001 0.21251199 0.167 4284959261
0.245 0.197 0.20543201 4289961588
0.248281 0.197 0.205 4288578660
0.248281 0.197 0.205515 4288578660
0.24394099 0.199 0.205 4290947447
0.249 0.197405 0.205 4288054886
0.25099999 0.19883099 0.205 4288186985
0.25120398 0.199 0.205 4287396433
0.25120398 0.199 0.205204 4287396433
0.25299999 0.20046401 0.205 4286540873
0.24536799 0.205 0.205 4287129923
0.24536799 0.20572001 0.205 4287129923
0.24439301 0.207 0.205 4288250979
0.245 0.207 0.206222 4285225005
0.257 0.21636501 0.221 4286011944
0.242075 0.213 0.205 4287921507
0.248466 0.213 0.205 4280950809
0.241438 0.215 0.205 4285882951
0.241438 0.216107 0.205 4285882951
0.247926 0.215 0.205 4284110417
0.247926 0.216866 0.205 4284110417
0.249 0.213 0.206193 4283453262
0.257 0.20823599 0.211 4286934340
0.245 0.19669901 0.205 4290158967
0.24699999 0.196586 0.205 4289503352
0.23836701 0.221 0.20299999 4288582005
0.243351 0.20100001 0.20900001 4290750072
0.23899999 0.221 0.20429499 4284373316
0.245 0.20100001 0.210489 4289763690
0.237698 0.223 0.20299999 4286937953
0.237698 0.224603 0.20299999 4286937953
0.24699999 0.20100001 0.210354 4288184422
0.244653 0.221 0.20299999 4284768347
0.24432601 0.20299999 0.20900001 4290815345
0.245 0.221 0.20366701 4284373332
0.245 0.20420399 0.20900001 4290289778
0.24428 0.223 0.20299999 4285163361
0.249461 0.20100001 0.20900001 4287726433
0.249461 0.20100001 0.20931 4287726433
0.245 0.223 0.204814 4286940292
0.25099999 0.20208201 0.20900001 4287857762
0.257 0.219401 0.22499999 4285749295
0.25213799 0.20299999 0.20900001 4286671438
0.25213799 0.20299999 0.210062 4286671438
0.259 0.22056799 0.22499999 4285946937
0.25299999 0.203711 0.20900001 4286736711
0.244583 0.20900001 0.207 4287461724
0.245 0.20900001 0.20807301 4283450147
0.243756 0.211 0.207 4285222200
0.243756 0.21299601 0.207 4285222200
0.25299999 0.21068801 0.207 4279110402
0.251147 0.211 0.207 4278846980
0.251147 0.21104801 0.207 4278846980
0.25402099 0.211 0.207 4278912000
0.25402099 0.211 0.207663 4278912000
0.255 0.211586 0.207 4278518272
0.25762799 0.221 0.227 4285486128
0.25762799 0.221 0.22762699 4285486128
0.259 0.22177699 0.227 4285158183
0.26100001 0.222974 0.227 4285945388
0.26104099 0.223 0.227 4285947441
0.26104099 0.223 0.227045 4285947441
0.26300001 0.224179 0.227 4286079025
0.24591701 0.205 0.207 4288841578
0.24541701 0.207 0.207 4285092397
0.24541701 0.207959 0.207 4285092397
0.256854 0.205 0.207 4287263564
0.256854 0.205 0.208801 4287263564
0.239866 0.21699999 0.20299999 4286344017
0.23919901 0.219 0.20299999 4286607711
0.23919901 0.219414 0.20299999 4286607711
0.24615699 0.21699999 0.20299999 4286873211
0.24550501 0.219 0.20299999 4285426788
0.24550501 0.220403 0.20299999 4285426788
0.245 0.19815199 0.207 4289763702
0.24699999 0.19825101 0.207 4289108089
0.24378799 0.199 0.207 4290948218
0.245 0.199 0.207984 4289829225
0.24699999 0.199 0.20796001 4288316261
0.249 0.198892 0.207 4289043064
0.249198 0.199 0.207 4287923557
0.249198 0.199 0.20714 4287923557
0.25099999 0.200452 0.207 4287988312
0.257 0.220644 0.227 4286341692
0.24299899 0.213 0.207 4288974702
0.243 0.213 0.20700301 4284370226
0.242332 0.215 0.207 4287724638
0.243 0.215 0.20880701 4286148445
0.24831599 0.215 0.207 4281412126
0.249575 0.213 0.207 4281018663
0.249575 0.21370199 0.207 4281018663
0.249 0.215 0.20829201 4284439642
0.239411 0.221 0.205 4287331944
0.239411 0.221806 0.205 4287331944
0.238464 0.223 0.205 4288318580
0.23899999 0.223 0.20612501 4287004785
0.245791 0.221 0.205 4286150001
0.24506399 0.223 0.205 4286281844
0.24506399 0.22313699 0.205 4286281844
0.245 0.20155999 0.211 4289105762
0.24699999 0.201603 0.211 4288711026
0.24341701 0.20299999 0.211 4290814841
0.245 0.20299999 0.212851 4290027116
0.24699999 0.20299999 0.21245199 4288316520
0.249 0.202436 0.211 4288449389
0.24992399 0.20299999 0.211 4287199322
0.24992399 0.20299999 0.211595 4287199322
0.25099999 0.20375599 0.211 4287397205
0.24552499 0.205 0.20900001 4289762157
0.24552499 0.205 0.20997 4289762157
0.246032 0.207 0.20900001 4288645231
0.25476101 0.205 0.20900001 4286867513
0.25476101 0.205 0.21056899 4286867513
0.255 0.20516799 0.20900001 4286605373
0.245424 0.20900001 0.20900001 4285223731
0.245424 0.210013 0.20900001 4285223731
0.24464999 0.211 0.20900001 4286738260
0.245 0.211 0.209711 4283448867
0.25099999 0.21260099 0.20900001 4279110152
0.25299999 0.212474 0.20900001 4278386688
0.255 0.212869 0.20900001 4278584322
0.240678 0.21699999 0.205 4287790687
0.24003001 0.219 0.205 4286344015
0.241 0.21699999 0.205771 4283122207
0.24689999 0.21699999 0.205 4287399550
0.24699999 0.21699999 0.205153 4285097570
0.257 0.22176199 0.229 4285355305
0.24626699 0.219 0.205 4285097567
0.259 0.222886 0.229 4285421348
0.24699999 0.219 0.206615 4285690223
0.259188 0.223 0.229 4285355552
0.259188 0.223 0.22922501 4285355552
0.26100001 0.224096 0.229 4285814822
0.245 0.19983999 0.20900001 4289830268
0.24699999 0.19994999 0.20900001 4289106808
0.249 0.20073399 0.20900001 4288647792
0.240114 0.221 0.207 4288054892
0.239463 0.223 0.207 4287397735
0.239463 0.223867 0.207 4287397735
0.245985 0.221 0.207 4284899675
0.24699999 0.221 0.208676 4287532685
0.2457 0.223 0.207 4287466377
0.2457 0.22492799 0.207 4287466377
0.243912 0.213 0.20900001 4285815364
0.245 0.213 0.210952 4282462743
0.243082 0.215 0.20900001 4282464036
0.243082 0.21522501 0.20900001 4282464036
0.25074401 0.213 0.20900001 4279899660
0.25099999 0.213 0.20931399 4278255616
0.25299999 0.213 0.20948701 4278452480
0.25519502 0.213 0.20900001 4278321408
0.25519502 0.213 0.209151 4278321408
0.249506 0.215 0.20900001 4279702020
0.249506 0.215955 0.20900001 4279702020
0.24607001 0.20900001 0.211 4288711286
0.24569 0.211 0.211 4286870620
0.24454899 0.205 0.211 4290684020
0.245 0.205745 0.211 4289895024
0.245886 0.207 0.211 4289697389
0.245886 0.207 0.21267501 4289697389
0.240701 0.219 0.207 4287921764
0.25258702 0.205 0.211 4286671950
0.25258702 0.205 0.21234801 4286671950
0.241624 0.21699999 0.207 4286804563
0.241624 0.218188 0.207 4286804563
0.25299999 0.205332 0.211 4286605122
0.247777 0.21699999 0.207 4285097056
0.255 0.206745 0.211 4286605373
0.241 0.219 0.20762801 4286737494
0.25534001 0.207 0.211 4286868291
0.25534001 0.207 0.211301 4286868291
0.24717301 0.219 0.207 4285822068
0.24717301 0.219219 0.207 4285822068
0.257 0.22288901 0.23100001 4285881392
0.25721499 0.223 0.23100001 4285421356
0.25721499 0.223 0.231251 4285421356
0.259 0.22392799 0.23100001 4285552941
0.245 0.203146 0.213 4289303144
0.24699999 0.20351 0.213 4288119135
0.249 0.204309 0.213 4288252009
0.24093699 0.221 0.20900001 4288119662
0.240413 0.223 0.20900001 4287857256
0.241 0.221 0.20912801 4285423945
0.247207 0.221 0.20900001 4289045925
0.247207 0.221617 0.20900001 4289045925
0.241 0.223 0.210539 4284109119
0.246209 0.223 0.20900001 4286742398
0.24699999 0.223 0.21072301 4289111460
0.24616601 0.20900001 0.213 4289433453
0.246326 0.211 0.213 4288710255
0.25569001 0.20900001 0.213 4286802753
0.25569001 0.20900001 0.213709 4286802753
0.245029 0.213 0.211 4281936926
0.245029 0.21307601 0.211 4281936926
0.244278 0.215 0.211 4286144841
0.25099999 0.214526 0.211 4278649858
0.25299999 0.214019 0.211 4278715651
0.255 0.21473399 0.211 4278518530
0.25063401 0.215 0.211 4279899657
0.25099999 0.215 0.21171001 4278453248
0.25547501 0.215 0.211 4278386944
0.25547501 0.215 0.21133299 4278386944
0.245 0.204972 0.215 4289961343
0.24351101 0.205 0.213 4290617200
0.24699999 0.205 0.21454601 4288449641
0.244835 0.207 0.213 4290683767
0.245 0.20729101 0.213 4290157166
0.25014701 0.205 0.213 4287265369
0.25014701 0.205 0.213771 4287265369
0.25099999 0.205558 0.213 4287000655
0.25299999 0.206973 0.213 4287263564
0.25099999 0.207 0.214882 4286737995
0.253034 0.207 0.213 4286934084
0.253034 0.207 0.213037 4286934084
0.255 0.208472 0.213 4286868549
0.24250701 0.21699999 0.20900001 4287133280
0.243 0.21699999 0.210273 4283055929
0.248519 0.21699999 0.20900001 4283255107
0.241826 0.219 0.20900001 4285355848
0.241826 0.220828 0.20900001 4285355848
0.24774 0.219 0.20900001 4288782495
0.249 0.21699999 0.20979601 4284308314
0.245345 0.20900001 0.215 4290486127
0.245345 0.20900001 0.21562 4290486127
0.24655201 0.211 0.215 4289827443
0.25361401 0.20900001 0.215 4286736699
0.25361401 0.20900001 0.215536 4286736699
0.255 0.210067 0.215 4286539581
0.25623402 0.211 0.215 4286342202
0.25623402 0.211 0.216078 4286342202
0.242099 0.221 0.211 4287134046
0.24772701 0.221 0.211 4286611068
0.241202 0.223 0.211 4287400570
0.241202 0.223575 0.211 4287400570
0.24707401 0.223 0.211 4289900460
0.24707401 0.22319701 0.211 4289900460
0.191963 0.233 0.086999997 4282529552
0.191963 0.233 0.087867998 4282529552
0.245572 0.213 0.213 4285423189
0.245572 0.21445701 0.213 4285423189
0.244836 0.215 0.213 4288052580
0.245 0.215 0.21342799 4280884239
0.25299999 0.21470501 0.213 4278190080
0.25220099 0.215 0.213 4278584322
0.25220099 0.215808 0.213 4278584322
0.25341001 0.215 0.213 4278190080
0.25341001 0.215 0.213342 4278190080
0.255 0.216334 0.213 4278321152
0.192919 0.227 0.085000001 4286408002
0.192919 0.227 0.086709604 4286408002
0.191661 0.229 0.085000001 4285358406
0.191661 0.229 0.085616894 4285358406
0.192056 0.23100001 0.085000001 4283253282
0.192056 0.23100001 0.085935801 4283253282
0.244791 0.205 0.215 4290486652
0.245167 0.205 0.215 4289236333
0.245167 0.205 0.21503 4289236333
0.24699999 0.20540601 0.215 4288447595
0.24354401 0.207 0.215 4290550899
0.244074 0.20900001 0.21699999 4290617199
0.245 0.20855099 0.215 4290156651
0.245 0.20855099 0.216939 4290156651
0.24335699 0.21699999 0.211 4284895805
0.24335699 0.217811 0.211 4284895805
0.245 0.20984301 0.21699999 4290222438
0.24699999 0.207 0.216938 4288778859
0.24263901 0.219 0.211 4286344281
0.24590401 0.211 0.21699999 4290683254
0.24590401 0.211 0.218362 4290683254
0.249 0.20603101 0.215 4288054628
0.243 0.219 0.21183299 4282924593
0.249 0.20900001 0.21879201 4287133269
0.25085101 0.207 0.215 4286936409
0.25085101 0.207 0.21622901 4286936409
0.24823101 0.219 0.211 4283321672
0.25133902 0.20900001 0.21699999 4286735676
0.25133902 0.20900001 0.21728799 4286735676
0.25099999 0.20709801 0.215 4287001420
0.24971899 0.21699999 0.211 4280359184
0.24971899 0.21784 0.211 4280359184
0.25299999 0.210168 0.21699999 4286735415
0.25299999 0.208524 0.215 4286802498
0.249 0.219 0.21265 4288190356
0.25407001 0.211 0.21699999 4286473011
0.25407001 0.211 0.217953 4286473011
0.255 0.211706 0.21699999 4286144048
0.242928 0.221 0.213 4287527776
0.243 0.221 0.213155 4286410328
0.248436 0.221 0.213 4286742137
0.24235401 0.223 0.213 4287134046
0.243 0.223 0.21429801 4287399799
0.24796401 0.223 0.213 4288913305
0.249 0.221 0.213935 4288914080
0.19013201 0.233 0.089000002 4282660119
0.19013201 0.233 0.090430297 4282660119
0.191 0.23340499 0.089000002 4282460934
0.191 0.226731 0.086999997 4286740314
0.190677 0.227 0.086999997 4286277698
0.190677 0.227 0.088771001 4286277698
0.246347 0.213 0.215 4288383079
0.24566901 0.215 0.215 4283516460
0.25299999 0.21669099 0.215 4278190080
0.189522 0.229 0.086999997 4285488708
0.189522 0.229 0.0875284 4285488708
0.18982001 0.23100001 0.086999997 4283252515
0.18982001 0.23100001 0.087866098 4283252515
0.191 0.23236001 0.086999997 4284041254
0.244 0.221 0.215 4287201393
0.243334 0.223 0.215 4286411625
0.243334 0.22452401 0.215 4286411625
0.248228 0.223 0.215 4288255631
0.249639 0.221 0.215 4281479208
0.249639 0.221771 0.215 4281479208
0.249 0.223 0.21600999 4288848285
0.24432601 0.21699999 0.213 4287921761
0.245 0.21699999 0.21462199 4281937182
0.24417999 0.20900001 0.219 4290484851
0.243635 0.219 0.213 4286608216
0.243635 0.22076699 0.213 4286608216
0.245 0.20900001 0.219469 4289103459
0.250265 0.21699999 0.213 4279899405
0.248574 0.20900001 0.219 4288052576
0.248574 0.20900001 0.21948801 4288052576
0.25099999 0.21699999 0.21443699 4278715648
0.24445799 0.211 0.219 4290814840
0.25631499 0.21699999 0.213 4279110406
0.25631499 0.21699999 0.213909 4279110406
0.245 0.211594 0.219 4290222439
0.24922399 0.219 0.213 4280951574
0.24922399 0.21952601 0.213 4280951574
0.249 0.20916601 0.219 4287526998
0.25099999 0.210484 0.219 4287133256
0.25170201 0.211 0.219 4286538035
0.25170201 0.211 0.21961099 4286538035
0.25299999 0.211935 0.219 4286668848
0.245 0.207093 0.21699999 4288776284
0.24699999 0.20705701 0.21699999 4287986781
0.249 0.20768499 0.21699999 4287989601
0.25099999 0.20877901 0.21699999 4287529050
0.188337 0.233 0.090999998 4282593806
0.189 0.233191 0.090999998 4282394370
0.192334 0.233 0.090999998 4282395399
0.192334 0.233336 0.090999998 4282395399
0.192334 0.233336 0.0916899 4282395399
0.246786 0.213 0.21699999 4289303153
0.24669901 0.215 0.21699999 4287791203
0.24699999 0.215 0.218031 4283778865
0.256816 0.213 0.21699999 4286408000
0.256816 0.213 0.21847099 4286408000
0.189 0.226842 0.089000002 4286608986
0.191549 0.22499999 0.089000002 4287069020
0.191549 0.225327 0.089000002 4287069020
0.191549 0.225327 0.089449801 4287069020
0.188793 0.227 0.089000002 4286410570
0.188793 0.227 0.090741999 4286410570
0.18763699 0.229 0.089000002 4285489225
0.18763699 0.229 0.089681394 4285489225
0.187923 0.23100001 0.089000002 4283121699
0.187923 0.23100001 0.090018801 4283121699
0.189 0.23206399 0.089000002 4283843364
0.244721 0.221 0.21699999 4287725153
0.245 0.221 0.21763 4283320370
0.245 0.208561 0.219 4289565808
0.244086 0.223 0.21699999 4286739033
0.24699999 0.20859501 0.219 4288908397
0.245 0.223 0.21885499 4287002730
0.25049099 0.221 0.21699999 4280754974
0.25099999 0.221 0.21762501 4279571985
0.249754 0.223 0.21699999 4281611049
0.249754 0.224774 0.21699999 4281611049
0.245 0.21034399 0.221 4288909164
0.24699999 0.210243 0.221 4288777575
0.24389701 0.211 0.221 4290551671
0.245 0.211 0.221829 4289170271
0.24699999 0.211 0.22195199 4287788873
0.249 0.21090899 0.221 4288974432
0.249182 0.211 0.221 4287394890
0.249182 0.211 0.22109599 4287394890
0.25099999 0.21214101 0.221 4287067462
0.245177 0.21699999 0.215 4282332202
0.245177 0.21749699 0.215 4282332202
0.24454601 0.219 0.215 4287856736
0.245 0.219 0.216245 4282595366
0.25198901 0.21699999 0.215 4278584064
0.25198901 0.21755299 0.215 4278584064
0.253553 0.21699999 0.215 4278190080
0.253553 0.21699999 0.21549401 4278190080
0.255 0.218045 0.215 4278584576
0.25026199 0.219 0.215 4280097045
0.25099999 0.219 0.216159 4279505420
0.25659502 0.219 0.215 4278321152
0.25659502 0.219 0.216424 4278321152
0.24613801 0.213 0.219 4290419572
0.24613801 0.213 0.220479 4290419572
0.24699999 0.21465801 0.219 4289175950
0.24719401 0.215 0.219 4282792995
0.24719401 0.21643201 0.219 4282792995
0.24719401 0.21643201 0.219448 4282792995
0.18871 0.233 0.093000002 4282131458
0.254372 0.213 0.219 4286406707
0.254372 0.213 0.220387 4286406707
0.189055 0.233 0.093000002 4282066693
0.189055 0.23301899 0.093000002 4282066693
0.189055 0.23301899 0.093049794 4282066693
0.255 0.213452 0.219 4285749541
0.255 0.215 0.220954 4286607172
0.18700001 0.22678101 0.090999998 4286543193
0.189722 0.22499999 0.090999998 4286871643
0.189722 0.22553399 0.090999998 4286871643
0.189722 0.22553399 0.091848001 4286871643
0.186738 0.227 0.090999998 4286344518
0.186738 0.227 0.092555605 4286344518
0.18565199 0.229 0.090999998 4285423688
0.18565199 0.229 0.091658302 4285423688
0.185955 0.23100001 0.090999998 4283253028
0.185955 0.23100001 0.0918734 4283253028
0.18700001 0.232077 0.090999998 4284040997
0.245584 0.221 0.219 4286477668
0.245067 0.223 0.219 4287596667
0.245067 0.22341701 0.219 4287596667
0.25237802 0.221 0.219 4279308814
0.25237802 0.22290699 0.219 4279308814
0.25299999 0.221 0.21977699 4278716420
0.255106 0.221 0.219 4278979593
0.255106 0.221 0.21906599 4278979593
0.25094599 0.223 0.219 4282137139
0.25099999 0.223 0.219097 4278716165
0.224602 0.229 0.052999999 4284502073
0.224602 0.229 0.0546638 4284502073
0.245 0.21214901 0.223 4288709986
0.24699999 0.212083 0.223 4287724366
0.249 0.21282801 0.223 4288317012
0.22481599 0.227 0.052999999 4285817671
0.22481599 0.227 0.0547348 4285817671
0.246025 0.21699999 0.21699999 4285619017
0.24533099 0.219 0.21699999 4283781945
0.24533099 0.219979 0.21699999 4283781945
0.25299999 0.218399 0.21699999 4278453251
0.25217199 0.219 0.21699999 4279505676
0.25217199 0.22010201 0.21699999 4279505676
0.25415099 0.219 0.21699999 4278190080
0.25415099 0.219 0.217564 4278190080
0.255 0.219576 0.21699999 4278913800
0.192643 0.241 0.117 4290293157
0.24461 0.213 0.221 4290880628
0.245 0.21337 0.221 4290486124
0.19295399 0.237 0.111 4288581247
0.246483 0.215 0.221 4289960564
0.24699999 0.216226 0.221 4288318327
0.252294 0.213 0.221 4286603579
0.252294 0.213 0.22189501 4286603579
0.25299999 0.21351601 0.221 4286669880
0.254944 0.215 0.221 4286144305
0.254944 0.215 0.222673 4286144305
0.255 0.215039 0.221 4285880359
0.18450901 0.227 0.093000002 4286410562
0.185 0.22663601 0.093000002 4286608986
0.18784 0.22499999 0.093000002 4287398239
0.18784 0.22555299 0.093000002 4287398239
0.18784 0.22555299 0.093722299 4287398239
0.18345301 0.229 0.093000002 4285555267
0.18345301 0.229 0.093418799 4285555267
0.18391201 0.23100001 0.093000002 4283254568
0.18391201 0.23100001 0.094008401 4283254568
0.185 0.23199001 0.093000002 4284633653
0.18700001 0.232814 0.093000002 4287199840
0.191 0.232427 0.093000002 4282988577
0.246408 0.221 0.221 4286673494
0.24699999 0.221 0.222157 4286675823
0.245923 0.223 0.221 4286279251
0.25299999 0.222378 0.221 4279572753
0.255 0.222789 0.221 4280755234
0.25249499 0.223 0.221 4278913543
0.25299999 0.223 0.221522 4279507477
0.255454 0.223 0.221 4280624673
0.255454 0.223 0.22128101 4280624673
0.22262399 0.229 0.055 4284566837
0.22262399 0.229 0.056595601 4284566837
0.223 0.22984101 0.055 4284305204
0.223533 0.23100001 0.055 4282331409
0.223533 0.23100001 0.0555594 4282331409
0.224811 0.22499999 0.055 4285882942
0.224811 0.22663699 0.055 4285882942
0.224811 0.22663699 0.056735698 4285882942
0.22271299 0.227 0.055 4285816645
0.22271299 0.227 0.0565743 4285816645
0.192287 0.237 0.113 4290686888
0.19254801 0.241 0.119 4291281081
0.246897 0.21699999 0.219 4287068509
0.24699999 0.21699999 0.21930701 4283385656
0.24614701 0.219 0.219 4285948750
0.24699999 0.219 0.220616 4282464812
0.25299999 0.22037899 0.219 4278190080
0.255 0.220936 0.219 4282005301
0.18099999 0.227 0.0969605 4286410050
0.183083 0.227 0.094999999 4286608976
0.183083 0.227061 0.094999999 4286608976
0.183083 0.227061 0.095088601 4286608976
0.18584 0.22499999 0.094999999 4287002715
0.18584 0.22573 0.094999999 4287002715
0.18584 0.22573 0.096070297 4287002715
0.18159801 0.229 0.094999999 4285620804
0.18159801 0.229 0.095623001 4285620804
0.18211199 0.23100001 0.094999999 4283385641
0.18211199 0.23100001 0.096151493 4283385641
0.183 0.231785 0.094999999 4284435246
0.185 0.232636 0.094999999 4287397219
0.18700001 0.23291799 0.094999999 4286344534
0.189 0.23233901 0.094999999 4284042806
0.191 0.23163499 0.094999999 4282921750
0.24400599 0.213 0.223 4290551168
0.19193 0.237 0.115 4292663254
0.245 0.21487699 0.223 4289038421
0.245 0.21487699 0.224088 4289038421
0.19242999 0.23899999 0.115 4290621351
0.24699999 0.213 0.223886 4287919689
0.245065 0.215 0.223 4290157418
0.245065 0.215 0.22312601 4290157418
0.24933501 0.213 0.223 4287197256
0.24933501 0.213 0.22317599 4287197256
0.25099999 0.21393201 0.223 4286801980
0.252644 0.215 0.223 4286343230
0.252644 0.215 0.224236 4286343230
0.25299999 0.21524401 0.223 4286341172
0.255 0.21657 0.223 4285880360
0.1925 0.241 0.121 4292993244
0.19289 0.243 0.121 4290886583
0.220612 0.229 0.057 4284568894
0.220612 0.229 0.0585659 4284568894
0.221 0.229972 0.057 4284633398
0.22149201 0.23100001 0.057 4282331920
0.22149201 0.23100001 0.057479501 4282331920
0.247429 0.221 0.223 4286147932
0.247429 0.22244 0.223 4286147932
0.223 0.231998 0.057 4282659860
0.24680799 0.223 0.223 4287594611
0.24699999 0.223 0.223483 4285687893
0.25299999 0.223977 0.223 4280295450
0.255 0.22425599 0.223 4280558870
0.19267 0.233 0.105 4285881655
0.22272401 0.22499999 0.057 4286407231
0.22272401 0.226455 0.057 4286407231
0.22272401 0.226455 0.058807801 4286407231
0.220615 0.227 0.057 4285488192
0.220615 0.227 0.058611199 4285488192
0.25661701 0.229 0.023 4282923802
0.25661701 0.229 0.024543101 4282923802
0.192063 0.237 0.117 4293453282
0.19216999 0.23899999 0.117 4292137417
0.256814 0.22499999 0.023 4285881916
0.25624201 0.227 0.023 4285092916
0.25624201 0.227 0.024138799 4285092916
0.18099999 0.226974 0.097000003 4286543192
0.24743401 0.21699999 0.221 4287331953
0.24743401 0.21699999 0.22262301 4287331953
0.184036 0.22499999 0.097000003 4287331422
0.184036 0.225731 0.097000003 4287331422
0.184036 0.225731 0.098239094 4287331422
0.24720599 0.219 0.221 4284042814
0.24720599 0.21954201 0.221 4284042814
0.18095799 0.227 0.097000003 4286411073
0.18095799 0.227 0.098999299 4286411073
0.179371 0.229 0.097000003 4285686599
0.179371 0.229 0.097383499 4285686599
0.19182299 0.233 0.107 4286540098
0.180149 0.23100001 0.097000003 4283385383
0.180149 0.23100001 0.098178901 4283385383
0.18099999 0.231627 0.097000003 4284436275
0.183 0.23255499 0.097000003 4287332197
0.185 0.232518 0.097000003 4285686605
0.18700001 0.232031 0.097000003 4282396690
0.18700001 0.232031 0.0986351 4282396690
0.189 0.23122999 0.097000003 4282394116
0.189 0.23122999 0.097748496 4282394116
0.191916 0.23100001 0.097000003 4281736451
0.191916 0.231105 0.097000003 4281736451
0.191916 0.231105 0.097502999 4281736451
0.248005 0.221 0.22499999 4286541393
0.247545 0.223 0.22499999 4286806639
0.247545 0.224732 0.22499999 4286806639
0.2185 0.229 0.059 4284437565
0.2185 0.229 0.060350299 4284437565
0.22082099 0.22499999 0.059 4286671173
0.22082099 0.22648199 0.059 4286671173
0.22082099 0.22648199 0.060532298 4286671173
0.219 0.230187 0.059 4284567350
0.218566 0.227 0.059 4285684286
0.218566 0.227 0.060536701 4285684286
0.21938001 0.23100001 0.059 4282463513
0.21938001 0.23100001 0.059384499 4282463513
0.221 0.23204201 0.059 4282858264
0.223 0.23245101 0.059 4283843882
0.245 0.213928 0.22499999 4288843101
0.24699999 0.21395199 0.22499999 4287724114
0.244022 0.215 0.22499999 4290418815
0.245 0.216002 0.22499999 4289760609
0.245 0.216002 0.226144 4289760609
0.24699999 0.215 0.22614901 4287919948
0.249 0.214607 0.22499999 4287987278
0.249836 0.215 0.22499999 4287264325
0.249836 0.215 0.22542301 4287264325
0.25099999 0.215692 0.22499999 4286672962
0.25299999 0.21690401 0.22499999 4287198274
0.254491 0.229 0.025 4282792216
0.254491 0.229 0.026187599 4282792216
0.255 0.229782 0.025 4282791700
0.255732 0.23100001 0.025 4282396944
0.255732 0.23100001 0.025785299 4282396944
0.192573 0.237 0.119 4294309362
0.19223 0.23899999 0.119 4293189336
0.223 0.249 0.100975 4280555777
0.20900001 0.233 0.0718899 4282263045
0.19124401 0.233 0.109 4286545756
0.192607 0.235 0.109 4287332218
0.255 0.22499999 0.025 4285686074
0.255 0.22499999 0.025 4285686074
0.255 0.22499999 0.0250003 4285686074
0.253934 0.227 0.025 4284831287
0.253934 0.227 0.0259567 4284831287
0.17900001 0.227 0.098999999 4286674777
0.18241701 0.22499999 0.098999999 4287265630
0.18241701 0.22601199 0.098999999 4287265630
0.18241701 0.22601199 0.10043 4287265630
0.17899899 0.227 0.098999999 4286279747
0.246916 0.21699999 0.223 4290223736
0.24699999 0.21724899 0.223 4288975749
0.24777099 0.219 0.223 4286936671
0.25567001 0.21699999 0.223 4286011686
0.25567001 0.21699999 0.223543 4286011686
0.247912 0.221 0.227 4287724633
0.247912 0.221 0.228237 4287724633
0.24828501 0.223 0.227 4286606417
0.22341499 0.245 0.094999999 4280095232
0.22341499 0.245 0.095390804 4280095232
0.22379801 0.241 0.089000002 4279897088
0.22379801 0.241 0.089682199 4279897088
0.222974 0.249 0.101 4280490240
0.222974 0.249 0.102726 4280490240
0.223 0.249018 0.101 4280490497
0.17751601 0.229 0.098999999 4285882691
0.17751601 0.229 0.099534102 4285882691
0.178085 0.23100001 0.098999999 4283582252
0.178085 0.23100001 0.100121 4283582252
0.17900001 0.23156799 0.098999999 4285093177
0.18099999 0.232059 0.098999999 4287397992
0.183 0.23218201 0.098999999 4286211416
0.18700001 0.230823 0.098999999 4286475863
0.189 0.230637 0.098999999 4284303925
0.191 0.23065601 0.098999999 4282723601
0.18654101 0.23100001 0.098999999 4282790420
0.18654101 0.231804 0.098999999 4282790420
0.18654101 0.231804 0.100472 4282790420
0.192642 0.23899999 0.121 4293650402
0.208009 0.233 0.072999999 4282461195
0.208009 0.233 0.074258797 4282461195
0.20969799 0.233 0.072999999 4282066435
0.20969799 0.23315801 0.072999999 4282066435
0.20969799 0.23315801 0.073692203 4282066435
0.21653101 0.227 0.061000001 4285815867
0.21653101 0.227 0.062621303 4285815867
0.218575 0.22499999 0.061000001 4286869322
0.218575 0.226496 0.061000001 4286869322
0.218575 0.226496 0.062906399 4286869322
0.224538 0.25299999 0.105 4280621825
0.224538 0.25299999 0.106521 4280621825
0.191054 0.233 0.111 4288710012
0.191054 0.233 0.11147 4288710012
0.216373 0.229 0.061000001 4284635713
0.216373 0.229 0.062266897 4284635713
0.245 0.21570399 0.227 4288973402
0.191925 0.235 0.111 4288842879
0.21699999 0.230425 0.061000001 4284305461
0.24699999 0.21584101 0.227 4287592014
0.21733701 0.23100001 0.061000001 4282529816
0.21733701 0.23100001 0.0612824 4282529816
0.249 0.216398 0.227 4287526730
0.219 0.232054 0.061000001 4283054361
0.221 0.23259901 0.061000001 4284567093
0.223 0.232383 0.061000001 4285686353
0.25217998 0.229 0.027000001 4282858007
0.25217998 0.229 0.0282286 4282858007
0.25299999 0.23015501 0.027000001 4282857493
0.25375599 0.23100001 0.027000001 4282331408
0.25375599 0.23100001 0.027695801 4282331408
0.255 0.23163299 0.027000001 4282265362
0.180455 0.22499999 0.101 4287331678
0.180455 0.22602999 0.101 4287331678
0.180455 0.22602999 0.102462 4287331678
0.177276 0.227 0.101 4286740310
0.177276 0.22719701 0.101 4286740310
0.177276 0.22719701 0.101277 4286740310
0.246456 0.221 0.229 4289763185
0.246456 0.221 0.23059399 4289763185
0.24699999 0.221737 0.229 4288644445
0.24815699 0.223 0.229 4287066709
0.25569299 0.221 0.229 4285749033
0.25569299 0.221 0.229653 4285749033
0.245694 0.21699999 0.22499999 4290091630
0.245694 0.21699999 0.22584 4290091630
0.24699999 0.21864599 0.22499999 4289103445
0.219 0.245 0.098829806 4280292352
0.247279 0.219 0.22499999 4288381032
0.247279 0.219 0.225353 4288381032
0.22108999 0.245 0.097000003 4280292096
0.22108999 0.245 0.097085699 4280292096
0.25099999 0.21699999 0.22674601 4286081605
0.223 0.24618201 0.097000003 4280424192
0.253153 0.21699999 0.22499999 4286275380
0.253153 0.21699999 0.225133 4286275380
0.22426401 0.24699999 0.097000003 4280358144
0.22426401 0.24699999 0.0981704 4280358144
0.255 0.21815801 0.22499999 4286406450
0.25634697 0.219 0.22499999 4286144048
0.25634697 0.219 0.22646299 4286144048
0.25302902 0.22499999 0.027000001 4285488177
0.25302902 0.22504699 0.027000001 4285488177
0.25302902 0.22504699 0.0270354 4285488177
0.25190401 0.227 0.027000001 4285028925
0.25190401 0.227 0.027896099 4285028925
0.221378 0.241 0.090999998 4279897600
0.221378 0.241 0.091300204 4279897600
0.223 0.2419 0.090999998 4280094720
0.22469001 0.243 0.090999998 4280028928
0.22469001 0.243 0.092464104 4280028928
0.22069201 0.249 0.103 4280621312
0.22069201 0.249 0.10454699 4280621312
0.221 0.249209 0.103 4280425217
0.223 0.25048599 0.103 4281016322
0.22375999 0.25099999 0.103 4280556289
0.22375999 0.25099999 0.103795 4280556289
0.22242101 0.25299999 0.107 4280621824
0.22242101 0.25299999 0.108181 4280621824
0.223 0.25333101 0.107 4280687873
0.20543401 0.233 0.075000003 4282658571
0.20543401 0.233 0.075505301 4282658571
0.207482 0.233 0.075000003 4282263560
0.207482 0.23310401 0.075000003 4282263560
0.207482 0.23310401 0.075582899 4282263560
0.19080201 0.233 0.113 4290750600
0.191 0.233685 0.113 4292002735
0.19136199 0.235 0.113 4291477679
0.21690899 0.22499999 0.063000001 4286474310
0.21690899 0.22660001 0.063000001 4286474310
0.21462601 0.227 0.063000001 4285816386
0.21462601 0.227 0.064561203 4285816386
0.17542399 0.229 0.101 4285686342
0.17542399 0.229 0.10142 4285686342
0.17607699 0.23100001 0.101 4283910963
0.17607699 0.23100001 0.102044 4283910963
0.177 0.231493 0.101 4285028929
0.17900001 0.231859 0.101 4288122487
0.18099999 0.23187199 0.101 4286671967
0.184304 0.23100001 0.101 4282856993
0.184304 0.23154201 0.101 4282856993
0.184304 0.23154201 0.10214499 4282856993
0.185 0.23075999 0.101 4282656768
0.21420901 0.229 0.063000001 4284767558
0.21420901 0.229 0.064133205 4284767558
0.18700001 0.23024401 0.101 4282525698
0.215 0.23060699 0.063000001 4284502328
0.189 0.23024 0.101 4282591235
0.213 0.23100001 0.064920001 4282726426
0.191 0.23063001 0.101 4282986001
0.215224 0.23100001 0.063000001 4282397975
0.215224 0.23100001 0.063217498 4282397975
0.19183001 0.23100001 0.101 4283709723
0.21699999 0.23228301 0.063000001 4282923545
0.219 0.23255999 0.063000001 4284569154
0.221 0.23248801 0.063000001 4286277978
0.223 0.231951 0.063000001 4285226304
0.250236 0.229 0.028999999 4282858269
0.250236 0.229 0.0301752 4282858269
0.25099999 0.230073 0.028999999 4283252255
0.251726 0.23100001 0.028999999 4282397202
0.251726 0.23100001 0.029685801 4282397202
0.25299999 0.231704 0.028999999 4282527510
0.255 0.232179 0.028999999 4282789142
0.255 0.245 0.066806898 4279963392
0.224324 0.237 0.082999997 4279305216
0.224324 0.237 0.084132798 4279305216
0.24434499 0.221 0.23100001 4289631626
0.245 0.22137 0.23100001 4289234518
0.24699999 0.222894 0.23100001 4288577863
0.247104 0.223 0.23100001 4287855965
0.247104 0.223 0.23111901 4287855965
0.253353 0.221 0.23100001 4285618222
0.253353 0.221 0.23132899 4285618222
0.255 0.22178599 0.23100001 4285551913
0.17527099 0.227 0.103 4287002970
0.17527099 0.227191 0.103 4287002970
0.17527099 0.227191 0.103393 4287002970
0.178459 0.22499999 0.103 4287856224
0.178459 0.22602901 0.103 4287856224
0.178459 0.22602901 0.10465699 4287856224
0.218796 0.245 0.098999999 4280489473
0.218796 0.245 0.100641 4280489473
0.219 0.245131 0.098999999 4280489729
0.221 0.246271 0.098999999 4280752129
0.222102 0.24699999 0.098999999 4280358656
0.222102 0.24699999 0.099974096 4280358656
0.223 0.247602 0.098999999 4280555777
0.249 0.22499999 0.030970301 4286474822
0.25123501 0.22499999 0.028999999 4285618225
0.25123501 0.2253 0.028999999 4285618225
0.25123501 0.2253 0.029286399 4285618225
0.24997799 0.227 0.028999999 4284962871
0.24997799 0.227 0.0299346 4284962871
0.218532 0.249 0.105 4280687360
0.218532 0.249 0.106345 4280687360
0.219 0.24934 0.105 4280687360
0.221 0.25066498 0.105 4281147655
0.221595 0.25099999 0.105 4280621825
0.221595 0.25099999 0.105475 4280621825
0.223 0.251858 0.105 4280818689
0.243834 0.21699999 0.227 4290484619
0.245 0.218058 0.227 4289760344
0.245 0.218058 0.228642 4289760344
0.24699999 0.21699999 0.22867399 4288446282
0.24578999 0.219 0.227 4290420599
0.24578999 0.219 0.228274 4290420599
0.24699999 0.22010401 0.227 4289170011
0.25061598 0.21699999 0.227 4286934850
0.25061598 0.21699999 0.227771 4286934850
0.25099999 0.217188 0.227 4286014264
0.25299999 0.21826899 0.227 4286407735
0.25443101 0.219 0.227 4285947699
0.25443101 0.219 0.228043 4285947699
0.255 0.219364 0.227 4285947443
0.21699999 0.241 0.094974294 4279897600
0.21939701 0.241 0.093000002 4280094720
0.21939701 0.241 0.0933704 4280094720
0.221 0.24216001 0.093000002 4280094976
0.222361 0.243 0.093000002 4279963392
0.222361 0.243 0.0940952 4279963392
0.223 0.24340601 0.093000002 4280094720
0.19085699 0.233 0.115 4292267455
0.22016999 0.25299999 0.109 4280884480
0.22016999 0.25299999 0.11005101 4280884480
0.191 0.23347701 0.115 4292201144
0.191 0.23347701 0.115318 4292201144
0.221 0.25356501 0.109 4280622592
0.19151801 0.235 0.115 4292992726
0.223 0.254812 0.109 4281082121
0.221 0.255 0.110948 4280622336
0.223287 0.255 0.109 4280622336
0.223287 0.255 0.109251 4280622336
0.20100001 0.233 0.078844398 4282529562
0.20367101 0.233 0.077 4282527500
0.20367101 0.233 0.077350803 4282527500
0.205504 0.233 0.077 4282657542
0.205504 0.233091 0.077 4282657542
0.205504 0.233091 0.077564999 4282657542
0.223 0.233 0.0787808 4279042048
0.25299999 0.241 0.0628663 4279831296
0.25530702 0.241 0.061000001 4280028160
0.25530702 0.241 0.061239399 4280028160
0.213 0.226575 0.064999998 4286804301
0.213 0.226575 0.066827103 4286804301
0.21523 0.22499999 0.064999998 4286871122
0.21523 0.225162 0.064999998 4286871122
0.21523 0.225162 0.065254502 4286871122
0.21255499 0.227 0.064999998 4285946687
0.21255499 0.227 0.066441499 4285946687
0.212119 0.229 0.064999998 4284635715
0.212119 0.229 0.066106401 4284635715
0.21291099 0.23100001 0.064999998 4282726427
0.21291099 0.23100001 0.066758901 4282726427
0.213 0.231088 0.064999998 4282923546
0.215 0.2324 0.064999998 4283186717
0.21699999 0.232738 0.064999998 4285357903
0.25478598 0.245 0.067000002 4280093952
0.25478598 0.245 0.068465203 4280093952
0.24805 0.229 0.030999999 4283318563
0.24805 0.229 0.032014098 4283318563
0.219 0.232271 0.064999998 4284434465
0.255 0.24512601 0.067000002 4280093696
0.249 0.230168 0.030999999 4283449375
0.221 0.232134 0.064999998 4285292100
0.24965601 0.23100001 0.030999999 4282462222
0.24965601 0.23100001 0.031659 4282462222
0.223882 0.23100001 0.064999998 4282263300
0.223882 0.231288 0.064999998 4282263300
0.223882 0.231288 0.066266999 4282263300
0.25099999 0.231704 0.030999999 4282592526
0.25299999 0.23200901 0.030999999 4282854928
0.255 0.232007 0.030999999 4284239667
0.256677 0.249 0.071000002 4280160256
0.256677 0.249 0.072447099 4280160256
0.17314599 0.229 0.103 4285620548
0.17314599 0.229 0.103161 4285620548
0.17399499 0.23100001 0.103 4283846195
0.17399499 0.23100001 0.103856 4283846195
0.175 0.23161501 0.103 4285358657
0.183 0.23067999 0.103 4284764474
0.177 0.231814 0.103 4287398505
0.17900001 0.231426 0.103 4284701253
0.18204601 0.23100001 0.103 4282855449
0.18204601 0.23135699 0.103 4282855449
0.18204601 0.23135699 0.10380001 4282855449
0.185 0.230049 0.103 4282591232
0.18700001 0.22986001 0.103 4282458882
0.189 0.229957 0.103 4282920458
0.191 0.23086999 0.103 4283446294
0.19119 0.23100001 0.103 4283907880
0.19119 0.23100001 0.10367 4283907880
0.22212601 0.237 0.085000001 4279371008
0.22212601 0.237 0.086104795 4279371008
0.223 0.23760201 0.085000001 4279568128
0.223 0.23899999 0.086985603 4279502336
0.25600401 0.25299999 0.077 4280292352
0.25600401 0.25299999 0.077884905 4280292352
0.17668201 0.22499999 0.105 4287923044
0.17668201 0.226289 0.105 4287923044
0.17668201 0.226289 0.106659 4287923044
0.173759 0.227 0.105 4287200093
0.173759 0.22745301 0.105 4287200093
0.173759 0.22745301 0.106382 4287200093
0.216647 0.245 0.101 4280358400
0.216647 0.245 0.102571 4280358400
0.21699999 0.24525599 0.101 4280490241
0.219 0.24650101 0.101 4280490753
0.219826 0.24699999 0.101 4280555776
0.219826 0.24699999 0.101734 4280555776
0.221 0.24774 0.101 4280621313
0.251142 0.221 0.233 4286277442
0.251142 0.221 0.233118 4286277442
0.25299999 0.221827 0.233 4286605893
0.216215 0.249 0.107 4280752896
0.216215 0.249 0.108025 4280752896
0.21699999 0.249524 0.107 4280818688
0.219 0.25078601 0.107 4281475592
0.21932001 0.25099999 0.107 4280752896
0.21932001 0.25099999 0.107297 4280752896
0.221 0.252139 0.107 4280752640
0.24897 0.22499999 0.030999999 4286342720
0.247963 0.227 0.030999999 4285290810
0.247963 0.227 0.031993002 4285290810
0.25667098 0.233 0.048999999 4279042048
0.25667098 0.233 0.050439399 4279042048
0.19212399 0.235 0.117 4293321695
0.200831 0.233 0.079000004 4282399002
0.200831 0.233 0.0806548 4282399002
0.20100001 0.23306501 0.079000004 4282528015
0.20396699 0.233 0.079000004 4282329093
0.20396699 0.233224 0.079000004 4282329093
0.222752 0.233 0.079000004 4279173120
0.222752 0.233 0.080449402 4279173120
0.245 0.217601 0.229 4288381013
0.223 0.23313901 0.079000004 4278910976
0.24699999 0.21726601 0.229 4286736191
0.24429101 0.219 0.229 4290222993
0.24429101 0.219 0.230838 4290222993
0.25286201 0.241 0.063000001 4279897088
0.25286201 0.241 0.064758301 4279897088
0.245 0.21943401 0.229 4289366353
0.25299999 0.24109501 0.063000001 4279962880
0.249 0.21793401 0.229 4286144572
0.255 0.242304 0.063000001 4279962880
0.25099999 0.21858799 0.229 4286407226
0.25628799 0.243 0.063000001 4279962880
0.25628799 0.243 0.063987799 4279962880
0.249 0.219 0.230619 4287131966
0.25189102 0.219 0.229 4285817145
0.25189102 0.219 0.229637 4285817145
0.25299999 0.21961799 0.229 4285947442
0.212826 0.22499999 0.067000002 4286869322
0.212826 0.22646201 0.067000002 4286869322
0.212826 0.22646201 0.068812601 4286869322
0.255 0.220633 0.229 4286209585
0.21042599 0.227 0.067000002 4286078787
0.21042599 0.227 0.068370901 4286078787
0.21697199 0.241 0.094999999 4280160513
0.21697199 0.241 0.096853696 4280160513
0.21699999 0.241019 0.094999999 4280095233
0.219 0.24221699 0.094999999 4280226304
0.22007899 0.243 0.094999999 4280095488
0.22007899 0.243 0.096013196 4280095488
0.221 0.243634 0.094999999 4280095232
0.223 0.244711 0.094999999 4280751872
0.217877 0.25299999 0.111 4280884481
0.217877 0.25299999 0.11175 4280884481
0.219 0.25372601 0.111 4280950016
0.22094099 0.255 0.111 4280884737
