# .PCD v0.7 - Point Cloud Data file format
VERSION 0.7
FIELDS x y z rgba
SIZE 4 4 4 4
TYPE F F F U
COUNT 1 1 1 1
WIDTH 1288
HEIGHT 1
VIEWPOINT 0 0 0 1 0 0 0
POINTS 1288
DATA ascii
0.193 0.25099999 0.183782 4287006078
0.19499999 0.25099999 0.184213 4287268735
0.197 0.25099999 0.184416 4288848285
0.199 0.25099999 0.18497001 4289111713
0.20100001 0.249 0.184421 4287334272
0.20299999 0.249 0.184944 4287203198
0.28099999 0.25299999 0.13021401 4294967295
0.28299999 0.25299999 0.129979 4294967295
0.285 0.25299999 0.129897 4294967295
0.287 0.25299999 0.130952 4294967295
0.28099999 0.255 0.13014701 4287799978
0.28299999 0.255 0.129895 4294967295
0.285 0.255 0.12991001 4294967295
0.29300001 0.249 0.133634 4294967295
0.29499999 0.249 0.13454801 4294967295
0.29300001 0.25099999 0.13487899 4294967295
0.29499999 0.25099999 0.134865 4294967295
0.306061 0.249 0.133 4280558871
0.30700001 0.249 0.133913 4280624411
0.30529901 0.25099999 0.133 4280362006
0.30529901 0.251728 0.133 4280362006
0.30700001 0.25099999 0.134698 4280624408
0.29499999 0.243 0.134977 4294967295
0.30759999 0.241 0.133 4280360722
0.147 0.248529 0.167 4287402644
0.30899999 0.241 0.13408701 4278193408
0.149 0.248098 0.167 4287665556
0.29196599 0.25299999 0.133 4294967295
0.15099999 0.24775 0.167 4287666580
0.30741799 0.243 0.133 4280360720
0.29300001 0.25299999 0.134239 4294967295
0.155 0.246489 0.167 4287798431
0.30899999 0.243 0.134293 4278980096
0.29170001 0.255 0.133 4294967295
0.29170001 0.25607598 0.133 4294967295
0.15700001 0.246086 0.167 4288060321
0.183 0.25397399 0.183 4287269248
0.29300001 0.255 0.13379201 4294967295
0.15977299 0.245 0.167 4288586157
0.17900001 0.256879 0.183 4286216303
0.30445701 0.25299999 0.133 4279901201
0.153731 0.24699999 0.167 4287732123
0.153731 0.247595 0.167 4287732123
0.18212801 0.255 0.183 4286545270
0.18212801 0.25622299 0.183 4286545270
0.30355301 0.255 0.133 4280098065
0.30355301 0.256282 0.133 4280098065
0.155 0.24699999 0.16766299 4288257704
0.183 0.255 0.183328 4287400322
0.30500001 0.25299999 0.133526 4280426771
0.15889101 0.24699999 0.167 4291085507
0.15889101 0.248164 0.167 4291085507
0.15889101 0.248164 0.16867 4291085507
0.18538499 0.25299999 0.183 4287465857
0.18538499 0.253488 0.183 4287465857
0.30500001 0.255 0.13429201 4280294929
0.30864701 0.229 0.13500001 4282597424
0.15899999 0.24699999 0.16713999 4292467159
0.18700001 0.25299999 0.183624 4287465857
0.30899999 0.23033299 0.13500001 4281875757
0.30899999 0.23033299 0.135215 4281875757
0.189 0.25299999 0.183788 4287465856
0.285 0.249 0.129903 4294967295
0.31099999 0.229 0.13634101 4281220146
0.191 0.25299999 0.18422501 4288189843
0.287 0.249 0.130418 4294967295
0.30921099 0.23100001 0.13500001 4281350189
0.28299999 0.25099999 0.129871 4294967295
0.185 0.255 0.18350999 4287203711
0.193 0.237414 0.15099999 4294770174
0.193 0.237414 0.152411 4294770174
0.31099999 0.23100001 0.13597099 4281612849
0.285 0.25099999 0.129897 4294967295
0.18700001 0.255 0.18414399 4289835437
0.31299999 0.23100001 0.13683501 4282663478
0.287 0.25099999 0.130399 4294967295
0.189 0.255 0.18440601 4290559160
0.191 0.255 0.18455 4292466900
0.193 0.23012699 0.149 4287339412
0.19499999 0.229588 0.149 4287337625
0.30972299 0.233 0.13500001 4281347869
0.19708 0.229 0.149 4286547335
0.19708 0.229017 0.149 4286547335
0.19708 0.229017 0.14908099 4286547335
0.31099999 0.233 0.135619 4281545510
0.31024301 0.235 0.13500001 4280953366
0.31099999 0.235 0.135342 4281347615
0.31299999 0.233 0.13656101 4281939498
0.31299999 0.235 0.136445 4281479975
0.193 0.245 0.180132 4287992204
0.19499999 0.245 0.180739 4287992203
0.13638601 0.255 0.163 4289703334
0.13699999 0.25436199 0.163 4290624695
0.13972901 0.25299999 0.163 4292400851
0.13972901 0.254933 0.163 4292400851
0.141 0.25299999 0.163561 4288386701
0.14300001 0.25299999 0.16475901 4290886580
0.13699999 0.25664601 0.163 4289505699
0.13699999 0.25664601 0.163315 4289505699
0.139 0.255018 0.163 4288847248
0.139 0.255018 0.16302401 4288847248
0.141 0.25610301 0.163 4291150784
0.310285 0.22499999 0.13699999 4282334766
0.31099999 0.22645301 0.13699999 4282993474
0.31099999 0.22645301 0.13745101 4282993474
0.161 0.246087 0.167 4291677645
0.161 0.246087 0.16783501 4291677645
0.163 0.24577001 0.167 4292730333
0.163 0.24577001 0.16891299 4292730333
0.31134501 0.227 0.13699999 4282663991
0.16500001 0.245455 0.167 4293388262
0.31299999 0.22499999 0.13858299 4284245082
0.16783799 0.245 0.167 4293783019
0.16783799 0.24516401 0.167 4293783019
0.31299999 0.227 0.13789199 4283586127
0.161 0.24699999 0.168118 4293914863
0.163 0.24699999 0.16831701 4293651178
0.16500001 0.24699999 0.168449 4293980399
0.167 0.24699999 0.16880099 4294638073
0.169 0.245 0.167431 4294374901
0.171 0.245 0.16772701 4294506743
0.17299999 0.245 0.168219 4294375157
0.175 0.245 0.16854601 4294111984
0.205 0.234349 0.15099999 4292269520
0.207 0.233852 0.15099999 4294835967
0.189 0.23635 0.169 4287664015
0.191 0.235808 0.169 4287664272
0.19499999 0.22866 0.153 4289641933
0.197 0.228274 0.153 4289378239
0.199 0.227851 0.153 4288655032
0.29899999 0.245 0.13649699 4294967295
0.310518 0.237 0.13500001 4280624649
0.205 0.226845 0.153 4289312711
0.167 0.25070301 0.177 4287005312
0.29899999 0.24699999 0.136584 4294967295
0.31099999 0.237 0.13530201 4280887062
0.207 0.226612 0.153 4289510343
0.16636701 0.25099999 0.177 4287663753
0.16636701 0.252253 0.177 4287663753
0.30943701 0.245 0.13500001 4279506944
0.30943701 0.24636099 0.13500001 4279506944
0.31053102 0.23899999 0.13500001 4278325504
0.20100001 0.22747 0.153 4288587955
0.167 0.25099999 0.177265 4287334789
0.31099999 0.245 0.13662601 4280426514
0.31099999 0.23899999 0.135336 4279572748
0.17029899 0.249 0.177 4286676859
0.17029899 0.249843 0.177 4286676859
0.20396601 0.227 0.153 4288852405
0.20396601 0.227147 0.153 4288852405
0.30880898 0.24699999 0.13500001 4280625179
0.31299999 0.237 0.136603 4280954915
0.20900001 0.226272 0.153 4289575878
0.171 0.249 0.177248 4286808956
0.30899999 0.24699999 0.13522001 4280558611
0.193 0.241 0.16967501 4294309364
0.211 0.225987 0.153 4289181115
0.17299999 0.249 0.17775999 4287137665
0.19499999 0.241 0.170203 4293453541
0.213 0.22567101 0.153 4289049013
0.175 0.249 0.178491 4287926669
0.197 0.241 0.170543 4292861662
0.169 0.25099999 0.177807 4287794826
0.21630901 0.22499999 0.153 4288455588
0.21630901 0.22528701 0.153 4288455588
0.171 0.25099999 0.178535 4288255377
0.21699999 0.22499999 0.154553 4287797660
0.18099999 0.25293601 0.177 4294967295
0.18700001 0.24984801 0.177 4291742661
0.20521601 0.25299999 0.18700001 4287005045
0.20521601 0.253131 0.18700001 4287005045
0.207 0.25299999 0.18727 4286543982
0.20345199 0.255 0.18700001 4286348404
0.20345199 0.25557402 0.18700001 4286348404
0.205 0.255 0.18748499 4286938999
0.207 0.255 0.187914 4286478195
0.20900001 0.25299999 0.18757899 4284242254
0.211 0.25299999 0.187923 4282598191
0.213 0.25299999 0.188076 4282664488
0.215 0.25299999 0.188223 4284835920
0.20900001 0.255 0.188293 4285887342
0.162444 0.241 0.163 4288587447
0.162444 0.24188699 0.163 4288587447
0.211 0.255 0.18839 4285822570
0.163 0.241 0.16334599 4288390840
0.213 0.255 0.18860801 4285690982
0.16500001 0.241 0.163991 4289375681
0.215 0.255 0.188766 4287531127
0.167 0.242487 0.163 4291612110
0.167 0.242487 0.16483 4291612110
0.21699999 0.25299999 0.18853 4286216297
0.161 0.243688 0.163 4292532956
0.161 0.243688 0.164592 4292532956
0.219 0.25299999 0.18865301 4287992720
0.163 0.243485 0.163 4293914607
0.166434 0.243 0.163 4294440951
0.166434 0.24338099 0.163 4294440951
0.167 0.243 0.163637 4294637817
0.169 0.241633 0.163 4293717486
0.171 0.24161701 0.163 4294506744
0.173574 0.241 0.163 4294769659
0.173574 0.241165 0.163 4294769659
0.175 0.241 0.16403301 4294638589
0.177 0.241 0.164948 4294506744
0.163 0.240743 0.163 4288588732
0.16500001 0.240217 0.163 4288391095
0.16789199 0.23899999 0.163 4288390839
0.16789199 0.239622 0.163 4288390839
0.169 0.238392 0.163 4288785595
0.172921 0.237 0.163 4288457403
0.172921 0.238004 0.163 4288457403
0.17299999 0.237 0.163063 4288523447
0.175 0.237 0.16401601 4288655032
0.169 0.23899999 0.16391701 4288457401
0.175 0.24031301 0.163 4292730334
0.177 0.239969 0.163 4293059042
0.17900001 0.239677 0.163 4294243571
0.18099999 0.23926401 0.163 4294111729
0.18363699 0.23899999 0.163 4294243315
0.18363699 0.239152 0.163 4294243315
0.185 0.238644 0.163 4293059298
0.18700001 0.23790899 0.163 4294177779
0.189 0.23801699 0.163 4294112243
0.191 0.23790601 0.163 4294243572
0.185 0.23899999 0.164032 4294111986
0.18700001 0.23899999 0.16464999 4294704123
0.193 0.246195 0.18099999 4287992460
0.196686 0.245 0.18099999 4287664008
0.196686 0.245369 0.18099999 4287664008
0.197 0.245 0.181052 4287663751
0.29899999 0.241 0.136318 4294967295
0.199 0.245 0.18178301 4287663236
0.29899999 0.243 0.136508 4294967295
0.193 0.24699999 0.18159699 4287860360
0.310303 0.241 0.13500001 4278193152
0.19499999 0.24699999 0.18206701 4287729285
0.31099999 0.241 0.13554899 4279637511
0.197 0.24699999 0.18256399 4287663492
0.309935 0.243 0.13500001 4279375620
0.233 0.255992 0.185 4294967295
0.199 0.24699999 0.18281899 4287860101
0.31099999 0.243 0.13601801 4279965452
0.240918 0.255 0.185 4294967295
0.240918 0.25564101 0.185 4294967295
0.20100001 0.245 0.182172 4287597188
0.241 0.25494298 0.185 4294967295
0.20299999 0.245 0.182687 4287596928
0.24699999 0.25396699 0.185 4294967295
0.249 0.25571099 0.185 4294967295
0.197 0.25270799 0.185 4286677110
0.199231 0.25099999 0.185 4286677108
0.199231 0.25108299 0.185 4286677108
0.20100001 0.25046802 0.185 4286940281
0.203246 0.249 0.185 4286544499
0.203246 0.249112 0.185 4286544499
0.205 0.249 0.185388 4285821034
0.207 0.249 0.18576699 4285427298
0.20100001 0.25099999 0.185266 4286808441
0.20299999 0.25099999 0.185875 4286939004
0.12899999 0.25291499 0.167 4283915852
0.131 0.25245801 0.167 4283720530
0.205 0.25099999 0.186257 4287136636
0.207 0.25099999 0.186535 4287465856
0.133 0.252226 0.167 4284443738
0.20900001 0.249 0.18600501 4285953130
0.136733 0.25099999 0.167 4286151026
0.136733 0.25175199 0.167 4286151026
0.211 0.249 0.18628399 4286872949
0.13699999 0.250918 0.167 4286810768
0.213 0.249 0.18665899 4288057998
0.139 0.25056401 0.167 4287665298
0.215 0.249 0.186993 4288518294
0.141 0.25014901 0.167 4287861906
0.20900001 0.25099999 0.18679801 4288979611
0.14300001 0.249567 0.167 4287336589
0.13699999 0.25099999 0.16709599 4286809992
0.139 0.25099999 0.167468 4287663500
0.141 0.25099999 0.168024 4287466631
0.14300001 0.25099999 0.16882099 4287467144
0.145248 0.249 0.167 4287598988
0.145248 0.249088 0.167 4287598988
0.147 0.249 0.16756399 4287796370
0.149 0.249 0.168199 4287928982
0.295156 0.25099999 0.13500001 4294967295
0.295156 0.25154701 0.13500001 4294967295
0.15099999 0.249 0.168529 4288651686
0.29699999 0.249 0.13570701 4294967295
0.31326097 0.233 0.13699999 4281873707
0.149 0.252455 0.167 4289834923
0.29699999 0.25099999 0.136226 4294967295
0.31333402 0.235 0.13699999 4281808424
0.151767 0.25099999 0.167 4290821304
0.151767 0.25133201 0.167 4290821304
0.30806699 0.249 0.13500001 4280755740
0.153 0.25027698 0.167 4289703343
0.30899999 0.249 0.13602 4280887581
0.155523 0.249 0.167 4291480265
0.155523 0.249213 0.167 4291480265
0.30727398 0.25099999 0.13500001 4280623896
0.30727398 0.25176901 0.13500001 4280623896
0.15700001 0.249 0.167872 4293059039
0.30899999 0.25099999 0.13688901 4280821018
0.15899999 0.249 0.16855499 4293717228
0.153 0.25099999 0.167588 4292203730
0.155 0.25099999 0.16837601 4294243316
0.193 0.22967599 0.15099999 4289049011
0.195244 0.229 0.15099999 4288390570
0.195244 0.229058 0.15099999 4288390570
0.195244 0.229058 0.151289 4288390570
0.29499999 0.25299999 0.13522701 4294967295
0.29499999 0.255 0.135392 4294967295
0.141 0.25483799 0.16500001 4290624180
0.30650401 0.25299999 0.13500001 4280492310
0.14349699 0.25299999 0.16500001 4290162857
0.14349699 0.25365299 0.16500001 4290162857
0.30700001 0.25299999 0.135539 4280557589
0.14075701 0.255 0.16500001 4289045146
0.305713 0.255 0.13500001 4280229135
0.305713 0.256724 0.13500001 4280229135
0.141 0.255281 0.16500001 4291150528
0.141 0.255281 0.165097 4291150528
0.30700001 0.255 0.13660899 4280360722
0.14300001 0.25664899 0.16500001 4291018940
0.14300001 0.25664899 0.165438 4291018940
0.145 0.25299999 0.165627 4288320656
0.147 0.25299999 0.16565199 4288714385
0.193 0.24276601 0.171 4292335058
0.193 0.23672901 0.153 4294440954
0.145 0.255 0.165976 4291018684
0.19499999 0.236073 0.153 4294769918
0.19499999 0.24185601 0.171 4292335570
0.197 0.23581599 0.153 4294901503
0.198801 0.241 0.171 4294967295
0.198801 0.24161501 0.171 4294967295
0.199 0.235681 0.153 4294770175
0.199 0.241 0.17108099 4293453280
0.193 0.243 0.171206 4293124573
0.20299999 0.23497701 0.153 4294704123
0.19499999 0.243 0.17216 4293124573
0.20100001 0.241 0.171589 4294967295
0.31227702 0.229 0.13699999 4281744946
0.31299999 0.230395 0.13699999 4282664511
0.31299999 0.230395 0.13741 4282664511
0.313099 0.23100001 0.13699999 4282202415
0.192972 0.255 0.185 4287005559
0.192972 0.25696 0.185 4287005559
0.31322399 0.22499999 0.139 4284507227
0.31363299 0.227 0.139 4284045393
0.31297502 0.23899999 0.13699999 4279768842
0.31322399 0.237 0.13699999 4281348643
0.31322399 0.23890699 0.13699999 4281348643
0.31299999 0.23899999 0.137034 4280887324
0.15899999 0.246509 0.169 4287993236
0.153 0.24856 0.169 4287467660
0.155 0.24819501 0.169 4287401099
0.157409 0.24699999 0.169 4287992982
0.157409 0.24735099 0.169 4287992982
0.15899999 0.24699999 0.16956799 4288453533
0.161 0.246356 0.169 4288256411
0.16308901 0.245 0.169 4288650654
0.16308901 0.245104 0.169 4288650654
0.16500001 0.245 0.16991499 4290427578
0.161 0.248504 0.169 4290163634
0.161 0.248504 0.170151 4290163634
0.163 0.24781799 0.169 4291940561
0.16500001 0.24743299 0.169 4293980399
0.16738699 0.24699999 0.169 4294572537
0.16738699 0.24714901 0.169 4294572537
0.169 0.24598899 0.169 4292203731
0.171 0.24576899 0.169 4293125346
0.17299999 0.24539399 0.169 4293783275
0.175642 0.245 0.169 4293980655
0.175642 0.24525501 0.169 4293980655
0.169 0.24699999 0.169918 4294506743
0.171 0.24699999 0.17008099 4294375158
0.177 0.245 0.16971999 4294375158
0.17900001 0.245 0.17016901 4294967295
0.183 0.245 0.170453 4294967295
0.20314799 0.237 0.15700001 4294967295
0.20314799 0.237091 0.15700001 4294967295
0.20314799 0.237091 0.158893 4294967295
0.193 0.228908 0.155 4289707727
0.19499999 0.22846299 0.155 4289641933
0.197 0.22789501 0.155 4288985535
0.199 0.227642 0.155 4288721851
0.301 0.241 0.13883701 4294967295
0.205 0.22670899 0.155 4289378497
0.303 0.235 0.13994099 4294967295
0.301 0.243 0.13760699 4294967295
0.207 0.226484 0.155 4289247164
0.314206 0.233 0.139 4282137138
0.312599 0.241 0.13699999 4279965451
0.20100001 0.227248 0.155 4289049011
0.31417099 0.235 0.139 4282005548
0.20302901 0.227 0.155 4288918200
0.20302901 0.22700399 0.155 4288918200
0.20302901 0.22700399 0.15521401 4288918200
0.31188801 0.243 0.13699999 4280295183
0.20900001 0.226329 0.155 4289312711
0.31299999 0.241 0.137715 4280558360
0.211 0.226037 0.155 4289312967
0.213 0.22574601 0.155 4289312449
0.215 0.225444 0.155 4289311670
0.216425 0.255 0.189 4281149715
0.216425 0.25578502 0.189 4281149715
0.21722201 0.22499999 0.155 4289179824
0.21722201 0.22504699 0.155 4289179824
0.21699999 0.25465199 0.189 4280296706
0.17299999 0.25075901 0.17900001 4287466632
0.22083099 0.25299999 0.189 4281611035
0.22083099 0.25424999 0.189 4281611035
0.17659801 0.249 0.17900001 4287729802
0.17659801 0.249771 0.17900001 4287729802
0.221 0.25299999 0.189033 4281611562
0.169 0.252803 0.17900001 4287795082
0.223 0.25299999 0.18927801 4281086752
0.17242399 0.25099999 0.17900001 4287664264
0.17242399 0.251968 0.17900001 4287664264
0.21699999 0.255 0.18909501 4281346059
0.17299999 0.25099999 0.17919201 4287663752
0.219 0.255 0.189244 4281871381
0.175 0.25099999 0.17972 4287729028
0.221 0.255 0.189605 4282859053
0.301 0.245 0.13745101 4294967295
0.177 0.249 0.17911001 4287861130
0.223 0.255 0.189685 4282992441
0.29950202 0.24699999 0.13699999 4294967295
0.29950202 0.24777099 0.13699999 4294967295
0.17900001 0.249 0.17962199 4287795079
0.301 0.24699999 0.13772 4294967295
0.18099999 0.249 0.18013 4287663237
0.31129801 0.245 0.13699999 4280492822
0.31129801 0.246069 0.13699999 4280492822
0.183 0.249 0.180549 4287926668
0.31068301 0.24699999 0.13699999 4280953886
0.177 0.25099999 0.180307 4287729287
0.31099999 0.24699999 0.137417 4280821270
0.17900001 0.25099999 0.18061399 4289177251
0.185 0.249 0.18095799 4287991948
0.193 0.23608701 0.155 4294704381
0.19499999 0.23574899 0.155 4294769660
0.197 0.23597701 0.155 4294835452
0.199 0.235315 0.155 4294572537
0.20100001 0.236422 0.155 4294440950
0.19499999 0.248722 0.183 4287729543
0.197 0.247758 0.183 4287597699
0.199605 0.24699999 0.183 4287466113
0.199605 0.24732001 0.183 4287466113
0.20100001 0.24629299 0.183 4287465859
0.20421201 0.245 0.183 4287136379
0.20421201 0.24547 0.183 4287136379
0.205 0.245 0.183218 4286281578
0.31414801 0.22499999 0.141 4283914837
0.207 0.245 0.183709 4285951583
0.255 0.22668 0.153 4291612102
0.314574 0.227 0.141 4283389003
0.20100001 0.24699999 0.183451 4287202430
0.254522 0.227 0.153 4286283374
0.20299999 0.24699999 0.18394701 4286609264
0.255 0.227312 0.153 4288519571
0.255 0.227312 0.15349001 4288519571
0.205 0.24699999 0.184333 4286149737
0.207 0.24699999 0.184747 4286281841
0.20900001 0.245 0.18414399 4285820000
0.211 0.245 0.184522 4286347636
0.193896 0.229 0.153 4289247169
0.193896 0.22926401 0.153 4289247169
0.193896 0.22926401 0.15448801 4289247169
0.213 0.245 0.184845 4287466891
0.163 0.242392 0.16500001 4288259496
0.16500001 0.241814 0.16500001 4288390318
0.167193 0.241 0.16500001 4288849591
0.167193 0.24122301 0.16500001 4288849591
0.16157201 0.243 0.16500001 4288849845
0.16157201 0.24370399 0.16500001 4288849845
0.163 0.24356799 0.16500001 4291743438
0.163 0.24356799 0.16580099 4291743438
0.16500001 0.24367999 0.16500001 4292796125
0.16888601 0.243 0.16500001 4294309364
0.16888601 0.24347501 0.16500001 4294309364
0.169 0.242902 0.16500001 4290098622
0.169 0.242902 0.166512 4290098622
0.171 0.24184801 0.16500001 4291940560
0.17299999 0.242011 0.16500001 4293717228
0.175 0.24150901 0.16500001 4294177779
0.169 0.243 0.16507299 4294704123
0.171 0.243 0.166208 4294835709
0.17299999 0.243 0.166309 4294572537
0.171 0.23884 0.16500001 4287996848
0.175 0.243 0.16660801 4294967295
0.17299999 0.238322 0.16500001 4287863978
0.177127 0.241 0.16500001 4294375414
0.177127 0.241034 0.16500001 4294375414
0.17900001 0.241 0.165712 4293980401
0.176643 0.237 0.16500001 4287798697
0.176643 0.23771299 0.16500001 4287798697
0.18099999 0.241 0.16588001 4294440951
0.170661 0.23899999 0.16500001 4287996333
0.170661 0.23986501 0.16500001 4287996333
0.183 0.241 0.16621001 4294572280
0.171 0.23899999 0.165205 4288127915
0.24699999 0.23019299 0.153 4292466642
0.29899999 0.25299999 0.138172 4294967295
0.177 0.243 0.16696401 4294177779
0.17299999 0.23899999 0.16583501 4288259505
0.249 0.229856 0.153 4292005833
0.29699999 0.255 0.13709399 4294967295
0.17900001 0.243 0.16677201 4294967295
0.175 0.23899999 0.16669701 4288850360
0.29899999 0.255 0.13863 4294967295
0.177 0.237 0.165197 4288127405
0.185 0.241 0.16692699 4294111985
0.30817598 0.25299999 0.13699999 4280426257
0.17900001 0.237 0.16610299 4288523186
0.30899999 0.25299999 0.138171 4280360720
0.18099999 0.237 0.16641401 4288654256
0.30727699 0.255 0.13699999 4280163854
0.30727699 0.25569299 0.13699999 4280163854
0.183 0.237 0.16679201 4288654259
0.17900001 0.24042599 0.16500001 4291940817
0.18099999 0.240384 0.16500001 4292993505
0.183 0.24003999 0.16500001 4293321956
0.189 0.238842 0.16500001 4293125348
0.27700001 0.240045 0.17299999 4292205021
0.191 0.23825599 0.16500001 4293849071
0.30500001 0.23899999 0.14037301 4294967295
0.185 0.239269 0.16500001 4293519849
0.31387401 0.237 0.139 4281414178
0.188554 0.23899999 0.16500001 4293454312
0.188554 0.23939301 0.16500001 4293454312
0.31365401 0.23899999 0.139 4280887067
0.189 0.23899999 0.16524599 4293585643
0.191 0.23899999 0.166656 4294177778
0.22499999 0.25299999 0.18946899 4281417513
0.227 0.25299999 0.18962499 4283127364
0.199 0.242128 0.17299999 4289966759
0.229 0.25299999 0.189832 4285624682
0.193 0.244789 0.17299999 4289900971
0.207 0.25230199 0.18700001 4287268477
0.23100001 0.25299999 0.189944 4286938743
0.20163499 0.241 0.17299999 4293914346
0.20163499 0.242226 0.17299999 4293914346
0.211 0.25081199 0.18700001 4286150246
0.22499999 0.255 0.18987399 4284636757
0.213 0.249882 0.18700001 4285821275
0.227 0.255 0.190134 4286149997
0.21506301 0.249 0.18700001 4285360729
0.21506301 0.24902001 0.18700001 4285360729
0.229 0.255 0.19029401 4287070588
0.21042199 0.25099999 0.18700001 4285689442
0.21042199 0.25154299 0.18700001 4285689442
0.23100001 0.255 0.190256 4287137661
0.211 0.25099999 0.187095 4283979589
0.233 0.25299999 0.189999 4286939769
0.213 0.25099999 0.187463 4282926374
0.235 0.25299999 0.18997701 4286939770
0.237 0.25299999 0.19000199 4286874233
0.215 0.25099999 0.18763699 4283256623
0.23899999 0.25299999 0.189853 4286939255
0.21699999 0.249 0.187205 4284966741
0.233 0.255 0.190264 4286874488
0.219 0.249 0.187636 4285953126
0.235 0.255 0.19032401 4287400837
0.221 0.249 0.18775199 4287005309
0.237 0.255 0.190291 4287005561
0.223 0.249 0.18810001 4286742396
0.23899999 0.255 0.19016701 4286939767
0.21699999 0.25099999 0.187912 4284176714
0.29899999 0.249 0.13746201 4294967295
0.241 0.25299999 0.18988299 4286872950
0.219 0.25099999 0.18814 4286149485
0.29899999 0.25099999 0.137624 4294967295
0.243 0.25299999 0.18991001 4286478191
0.221 0.25099999 0.18848699 4287005564
0.30992401 0.249 0.13699999 4280755995
0.245 0.25299999 0.18991299 4286347372
0.223 0.25099999 0.18866001 4287860878
0.31099999 0.249 0.138623 4280558611
0.24699999 0.25299999 0.189899 4286347885
0.3091 0.25099999 0.13699999 4280426770
0.3091 0.25121799 0.13699999 4280426770
0.241 0.255 0.19018801 4286873718
0.243 0.255 0.190237 4286742388
0.245 0.255 0.19023599 4286807925
0.24699999 0.255 0.19017799 4286676595
0.249 0.25299999 0.189886 4286545008
0.12899999 0.25299999 0.167091 4283454785
0.25099999 0.25299999 0.189868 4285887331
0.131 0.25299999 0.16753301 4283718467
0.25299999 0.25299999 0.189804 4285230422
0.133 0.25299999 0.167832 4284573007
0.255 0.25299999 0.189707 4284704337
0.13500001 0.25299999 0.168521 4286349435
0.249 0.255 0.19024299 4286413166
0.12899999 0.255 0.16893899 4286084725
0.25099999 0.255 0.190183 4285887075
0.31390601 0.229 0.139 4283124803
0.13699999 0.25299999 0.16887 4288057492
0.25299999 0.255 0.19008 4284966230
0.314163 0.23100001 0.139 4282335032
0.275527 0.241 0.17299999 4286812059
0.14837199 0.25299999 0.167 4288188043
0.14837199 0.25473499 0.167 4288188043
0.255 0.255 0.189924 4284638549
0.149 0.25299999 0.167459 4288583056
0.27573499 0.243 0.17299999 4286614675
0.15099999 0.25299999 0.16808 4292137938
0.146731 0.255 0.167 4288123020
0.146731 0.255943 0.167 4288123020
0.147 0.255 0.167245 4290690234
0.149 0.255 0.168364 4291874766
0.153 0.25299999 0.16885899 4293651178
0.15700001 0.248944 0.171 4286808958
0.15899999 0.248458 0.171 4286940030
0.139 0.25256199 0.169 4287335303
0.141 0.251959 0.169 4287400577
0.14361 0.25099999 0.169 4287268985
0.14361 0.25118101 0.169 4287268985
0.145 0.250698 0.169 4287531910
0.193 0.235992 0.15700001 4294638330
0.147 0.25024801 0.169 4287334527
0.19499999 0.23585001 0.15700001 4294901502
0.149 0.24972001 0.169 4287136890
0.197 0.23578301 0.15700001 4294769915
0.15184599 0.249 0.169 4287071357
0.15184599 0.24955 0.169 4287071357
0.199 0.235641 0.15700001 4294769916
0.145 0.25099999 0.169337 4287268471
0.20100001 0.23598599 0.15700001 4294572536
0.147 0.25099999 0.169891 4287333758
0.20299999 0.236634 0.15700001 4293321954
0.149 0.25099999 0.170399 4287333761
0.153 0.249 0.169497 4287334278
0.155 0.249 0.17023399 4288387480
0.22499999 0.249 0.188402 4286676599
0.15700001 0.25011599 0.169 4290624443
0.227 0.249 0.188567 4286940029
0.160588 0.249 0.169 4292269009
0.160588 0.24985601 0.169 4292269009
0.229 0.249 0.188853 4288253837
0.15613699 0.25099999 0.169 4292006096
0.15613699 0.251634 0.169 4292006096
0.22499999 0.25099999 0.18898501 4289966767
0.15700001 0.25099999 0.16978399 4292993505
0.233 0.249 0.188976 4287992209
0.15899999 0.25099999 0.17009699 4293651433
0.241 0.249 0.188916 4287794052
0.243 0.249 0.18899201 4286807667
0.24699999 0.249 0.18899201 4285887325
0.199 0.23819099 0.15899999 4294967295
0.303 0.241 0.13995199 4294967295
0.20298301 0.237 0.15899999 4294967295
0.20298301 0.23832899 0.15899999 4294967295
0.303 0.243 0.13985699 4294967295
0.25099999 0.249 0.18882801 4287268732
0.30500001 0.243 0.14094999 4294967295
0.25299999 0.249 0.18884599 4287268221
0.31277898 0.243 0.139 4280821532
0.255 0.249 0.18888299 4287071095
0.31330702 0.241 0.139 4280755482
0.31330702 0.242413 0.139 4280755482
0.31299999 0.243 0.13962199 4281018654
0.31452399 0.22499999 0.14300001 4282599743
0.314767 0.227 0.14300001 4282138413
0.303 0.233474 0.141 4294967295
0.303 0.233474 0.14147399 4294967295
0.30500001 0.233 0.142645 4294967295
0.30500001 0.235 0.14168499 4294967295
0.31445402 0.233 0.141 4282335540
0.31437799 0.235 0.141 4282204470
0.163 0.24653301 0.171 4287071875
0.16661701 0.245 0.171 4286873724
0.16661701 0.24597901 0.171 4286873724
0.167 0.245 0.171224 4286743429
0.161815 0.24699999 0.171 4286677373
0.161815 0.24755 0.171 4286677373
0.163 0.24699999 0.17154801 4287138186
0.16500001 0.24699999 0.172435 4290032558
0.169 0.245 0.17195101 4287992980
0.169 0.24880099 0.171 4291611339
0.171 0.247647 0.171 4293519592
0.17299999 0.24752499 0.171 4294704122
0.17699601 0.24699999 0.171 4294967295
0.17699601 0.247473 0.171 4294967295
0.177 0.246998 0.171 4293190626
0.17900001 0.24696201 0.171 4294243571
0.18099999 0.24597999 0.171 4292531154
0.183 0.24560499 0.171 4290095013
0.177 0.24699999 0.171002 4288978837
0.17900001 0.24699999 0.17103101 4291940298
0.18099999 0.24699999 0.172234 4288978837
0.18574899 0.245 0.171 4290095013
0.18574899 0.24521101 0.171 4290095013
0.18700001 0.245 0.17145701 4294967295
0.30500001 0.237941 0.141 4294967295
0.30500001 0.237941 0.14147399 4294967295
0.305601 0.23899999 0.141 4294967295
0.305601 0.240824 0.141 4294967295
0.314017 0.237 0.141 4282137649
0.22499999 0.245 0.18681501 4287334785
0.313723 0.23899999 0.141 4281413416
0.205 0.248293 0.185 4285886566
0.193 0.22883299 0.15700001 4289707212
0.20863901 0.24699999 0.185 4285032790
0.20863901 0.247526 0.185 4285032790
0.20900001 0.24688299 0.185 4284835153
0.19499999 0.228368 0.15700001 4289247430
0.211 0.24601601 0.185 4284507214
0.197 0.227832 0.15700001 4288065464
0.21382201 0.245 0.185 4284572758
0.21382201 0.24533001 0.185 4284572758
0.199 0.22753999 0.15700001 4288130231
0.215 0.245 0.185258 4286414199
0.20299999 0.226963 0.15700001 4289640896
0.20900001 0.24699999 0.18506399 4284441936
0.205 0.22666299 0.15700001 4289509571
0.211 0.24699999 0.185481 4284376409
0.207 0.22646001 0.15700001 4289443782
0.213 0.24699999 0.18581399 4285953391
0.20235801 0.227 0.15700001 4289115062
0.20235801 0.227083 0.15700001 4289115062
0.215 0.24699999 0.18616499 4287531141
0.20900001 0.22625101 0.15700001 4289313224
0.18099999 0.25052902 0.18099999 4287597445
0.21699999 0.245 0.18564799 4287467143
0.183 0.25008699 0.18099999 4287597444
0.211 0.22598599 0.15700001 4289181126
0.219 0.245 0.185918 4287598212
0.177 0.2527 0.18099999 4287663491
0.213 0.22575301 0.15700001 4289312713
0.221 0.245 0.18629201 4287532164
0.180306 0.25099999 0.18099999 4287597444
0.180306 0.25186199 0.18099999 4287597444
0.215 0.225429 0.15700001 4289377732
0.223 0.245 0.186584 4287400576
0.18099999 0.25099999 0.181253 4287466372
0.217383 0.22499999 0.15700001 4289443004
0.217383 0.22507001 0.15700001 4289443004
0.217383 0.22507001 0.157894 4289443004
0.21699999 0.24699999 0.186453 4287597958
0.183 0.25099999 0.18155499 4287466116
0.219 0.24699999 0.186665 4288452497
0.18514101 0.249 0.18099999 4287663494
0.18514101 0.24905799 0.18099999 4287663494
0.18700001 0.249 0.181576 4287729031
0.189 0.249 0.18208399 4287729032
0.191 0.249 0.18237199 4287860617
0.185 0.25099999 0.18231 4287597959
0.18700001 0.25099999 0.182695 4287992463
0.303 0.245 0.14000101 4294967295
0.31232101 0.245 0.139 4280755737
0.193 0.241 0.17643601 4287729029
0.31178799 0.24699999 0.139 4280624147
0.29998401 0.25299999 0.139 4294967295
0.301 0.25299999 0.139525 4294967295
0.193 0.229 0.158915 4288917694
0.31484699 0.229 0.141 4283256640
0.303 0.25299999 0.14057401 4294967295
0.314621 0.23100001 0.141 4282729785
0.29951599 0.255 0.139 4294967295
0.301 0.255 0.13975701 4294967295
0.30954099 0.25299999 0.139 4280164107
0.30954099 0.254363 0.139 4280164107
0.308725 0.255 0.139 4280164623
0.30899999 0.255 0.13948199 4279572484
0.193 0.236187 0.15899999 4294638330
0.19499999 0.23588499 0.15899999 4294704123
0.197 0.23613299 0.15899999 4294901245
0.26300001 0.23971601 0.177 4294967295
0.199 0.23613499 0.15899999 4294572536
0.26499999 0.23990101 0.177 4294967295
0.20100001 0.23605299 0.15899999 4293980142
0.27700001 0.237 0.17882201 4286217078
0.213 0.233 0.160244 4290492337
0.22499999 0.237 0.18215199 4286806901
0.27900001 0.237 0.17838699 4285821282
0.227 0.237 0.18249001 4286939769
0.28099999 0.237 0.17835 4285229918
0.229 0.237 0.182707 4286676604
0.28299999 0.237 0.17808901 4285164386
0.23100001 0.237 0.18280201 4286283127
0.285 0.237 0.17783999 4284635986
0.28840601 0.237 0.177 4283388222
0.28840601 0.237 0.177412 4283388222
0.285 0.23899999 0.17878 4285755497
0.287 0.23899999 0.178322 4285426020
0.31414101 0.22499999 0.145 4281680434
0.303 0.249 0.140945 4294967295
0.301 0.25099999 0.13918401 4294967295
0.31409401 0.227 0.145 4282139440
0.303 0.25099999 0.13973199 4294967295
0.31117401 0.249 0.139 4280426514
0.31117401 0.249551 0.139 4280426514
0.310415 0.25099999 0.139 4280360723
0.31099999 0.25099999 0.14008501 4280295183
0.22499999 0.241 0.18503101 4286414455
0.227 0.241 0.18523599 4285954922
0.229 0.241 0.185398 4285954667
0.221 0.25287399 0.189 4284439374
0.23100001 0.241 0.185543 4286677111
0.223 0.25204101 0.189 4283519302
0.22499999 0.243 0.185922 4286677628
0.193 0.237 0.161873 4294967295
0.227 0.243 0.186205 4286480249
0.19499999 0.237 0.162935 4294967295
0.229 0.243 0.186407 4286742905
0.199 0.237 0.162725 4294967295
0.23100001 0.243 0.186589 4287203202
0.20142999 0.237 0.161 4294243315
0.20142999 0.237 0.161441 4294243315
0.233 0.241 0.18564999 4287006337
0.20299999 0.237506 0.161 4292136907
0.235 0.241 0.18584 4287006336
0.237 0.241 0.185838 4287006334
0.23899999 0.241 0.185976 4287203456
0.233 0.243 0.18692599 4287334273
0.235 0.243 0.18676601 4287268736
0.237 0.243 0.18695799 4287203196
0.23899999 0.243 0.18689799 4287335043
0.241 0.241 0.185994 4287268738
0.243 0.241 0.18598101 4287202945
0.245 0.241 0.185996 4287202944
0.27500001 0.233 0.176579 4286808960
0.24699999 0.241 0.185992 4287137663
0.27700001 0.233 0.176091 4286480763
0.241 0.243 0.18697099 4287400325
0.27900001 0.233 0.175925 4286019699
0.243 0.243 0.18684199 4287334785
0.28099999 0.233 0.17582899 4285295714
0.245 0.243 0.18693601 4287334783
0.28299999 0.233 0.17575599 4284638293
0.24699999 0.243 0.18685201 4287268991
0.285 0.233 0.17556101 4284507220
0.249 0.241 0.18602 4286939770
0.28831699 0.233 0.175 4284111695
0.28831699 0.233 0.175345 4284111695
0.25099999 0.241 0.186047 4286545014
0.285 0.235 0.17677499 4284308048
0.25299999 0.241 0.18604 4286413426
0.287 0.235 0.176466 4283191099
0.255 0.241 0.18607001 4286741877
0.227 0.25038901 0.189 4285097049
0.249 0.243 0.18686999 4287334271
0.230315 0.249 0.189 4285689443
0.230315 0.249567 0.189 4285689443
0.25099999 0.243 0.18690899 4287400322
0.232513 0.249 0.189 4286742132
0.232513 0.249 0.18906701 4286742132
0.25299999 0.243 0.18690199 4287531652
0.22514799 0.25099999 0.189 4283256383
0.22514799 0.25106001 0.189 4283256383
0.255 0.243 0.186903 4287201915
0.131 0.25492799 0.169 4284638035
0.227 0.25099999 0.18917999 4283060537
0.133 0.254096 0.169 4284571463
0.229 0.25099999 0.189357 4284835674
0.13500001 0.25347999 0.169 4284900430
0.171 0.240602 0.167 4285760138
0.23100001 0.25099999 0.189504 4286742905
0.129888 0.255 0.169 4286149996
0.129888 0.255077 0.169 4286149996
0.17299999 0.239764 0.167 4286745492
0.23338801 0.249 0.189 4287004793
0.23338801 0.249082 0.189 4287004793
0.131 0.255 0.16906799 4285493349
0.175521 0.23899999 0.167 4287731874
0.175521 0.239214 0.167 4287731874
0.235 0.249 0.18909 4286874233
0.133 0.255 0.169763 4285427809
0.177 0.238372 0.167 4286085502
0.237 0.249 0.18900999 4286874235
0.13500001 0.255 0.170063 4286414458
0.17900001 0.23769 0.167 4286479492
0.24002099 0.249 0.189 4287071611
0.24002099 0.249 0.18908501 4287071611
0.137446 0.25299999 0.169 4286217071
0.137446 0.253189 0.169 4286217071
0.18099999 0.237426 0.167 4286940045
0.233 0.25099999 0.18956101 4287005818
0.139 0.25299999 0.169422 4287269254
0.18335499 0.237 0.167 4287863195
0.18335499 0.237161 0.167 4287863195
0.235 0.25099999 0.189558 4287005562
0.141 0.25299999 0.170076 4287334273
0.177 0.23899999 0.16756199 4288521643
0.237 0.25099999 0.189622 4287071098
0.14300001 0.25299999 0.170599 4287203195
0.17900001 0.23899999 0.16829601 4288652721
0.23899999 0.25099999 0.189574 4287070839
0.13699999 0.255 0.170422 4287137159
0.185 0.237 0.16810499 4288259232
0.241 0.249303 0.189 4287004791
0.15099999 0.25403899 0.169 4290887355
0.18700001 0.237 0.168615 4288521902
0.24357699 0.249 0.189 4285163098
0.24357699 0.24902999 0.189 4285163098
0.14953999 0.255 0.169 4290361525
0.14953999 0.25540102 0.169 4290361525
0.18700001 0.240573 0.167 4292927710
0.16500001 0.242607 0.167 4286745491
0.24642999 0.249 0.189 4283650621
0.24642999 0.249 0.18901801 4283650621
0.15099999 0.255 0.169903 4292532697
0.189 0.239758 0.167 4292533208
0.167 0.24216701 0.167 4287599517
0.24761799 0.249 0.189 4282008089
0.24761799 0.24903101 0.189 4282008089
0.153198 0.25299999 0.169 4291151296
0.153198 0.253162 0.169 4291151296
0.191 0.239162 0.167 4292927967
0.161 0.244344 0.167 4287600026
0.30491599 0.241 0.141 4294967295
0.241 0.25099999 0.18947901 4286544498
0.155 0.25299999 0.170304 4293585384
0.30500001 0.242274 0.141 4294967295
0.30500001 0.242274 0.141065 4294967295
0.164248 0.243 0.167 4288783270
0.164248 0.2439 0.167 4288783270
0.243 0.25099999 0.18946099 4285294942
0.15700001 0.25299999 0.17058501 4294506744
0.30504701 0.243 0.141 4294967295
0.30504701 0.243128 0.141 4294967295
0.16500001 0.243 0.16743401 4288915118
0.245 0.25099999 0.18946899 4283914564
0.153 0.255 0.17034 4292334804
0.31342003 0.241 0.141 4281412645
0.167 0.243 0.16827799 4290690751
0.24699999 0.25099999 0.18945301 4283584317
0.16997501 0.241 0.167 4288454563
0.16997501 0.241386 0.167 4288454563
0.24917001 0.249 0.189 4281352469
0.24917001 0.249 0.189016 4281352469
0.171 0.241 0.167475 4288718255
0.25099999 0.249588 0.189 4282404142
0.31326503 0.243 0.141 4281216034
0.31326503 0.244527 0.141 4281216034
0.17299999 0.241 0.168357 4290624960
0.25299999 0.249658 0.189 4284966485
0.169 0.244542 0.167 4292927712
0.255 0.24941801 0.189 4286019432
0.22618699 0.245 0.18700001 4286874744
0.22618699 0.24541099 0.18700001 4286874744
0.171 0.244094 0.167 4293650921
0.249 0.25099999 0.189458 4283714880
0.227 0.245 0.187124 4286808440
0.17299999 0.24367999 0.167 4293585387
0.25099999 0.25099999 0.189402 4284571218
0.229 0.245 0.18730499 4287006075
0.175 0.243423 0.167 4293651433
0.25299999 0.25099999 0.18933401 4285886559
0.23100001 0.245 0.187482 4287203457
0.18099999 0.24195699 0.167 4293256678
0.255 0.25099999 0.18939799 4285887323
0.22499999 0.24699999 0.187659 4286611320
0.19303399 0.229 0.15899999 4288655295
0.19303399 0.22900799 0.15899999 4288655295
0.183 0.241427 0.167 4293059040
0.227 0.24699999 0.18790801 4286676600
0.19499999 0.229 0.160061 4288064182
0.177 0.24305299 0.167 4294440952
0.229 0.24699999 0.18810201 4287203197
0.17958799 0.243 0.167 4294967295
0.17958799 0.24325199 0.167 4294967295
0.194263 0.241 0.177 4287664008
0.194263 0.241492 0.177 4287664008
0.18099999 0.243 0.16779 4294967295
0.23100001 0.24699999 0.18834801 4287203197
0.19499999 0.241 0.17727001 4287729803
0.183 0.243 0.168115 4294967295
0.233 0.245 0.187655 4287071358
0.197 0.241 0.177911 4287795597
0.18540101 0.241 0.167 4292664538
0.18540101 0.241097 0.167 4292664538
0.235 0.245 0.18772599 4287005821
0.199 0.241 0.178477 4287861134
0.18700001 0.241 0.167326 4294309364
0.237 0.245 0.187648 4287005820
0.193 0.243 0.17857401 4287795595
0.189 0.241 0.16826601 4294967295
0.23899999 0.245 0.18769799 4287137148
0.191 0.241 0.168615 4294375158
0.233 0.24699999 0.188371 4287202942
0.185 0.243 0.16883099 4294177263
0.235 0.24699999 0.18852 4287202944
0.237 0.24699999 0.18835801 4287203197
0.23899999 0.24699999 0.188463 4287268991
0.241 0.245 0.187732 4287137919
0.243 0.245 0.187711 4287136635
0.245 0.245 0.187646 4286807153
0.24699999 0.245 0.18767799 4286281315
0.241 0.24699999 0.188402 4287399805
0.243 0.24699999 0.18834399 4287004528
0.245 0.24699999 0.18835001 4286215268
0.24699999 0.24699999 0.188416 4285688150
0.249 0.245 0.187665 4286215263
0.25099999 0.245 0.187711 4286676080
0.15099999 0.25077298 0.171 4286939772
0.25299999 0.245 0.187682 4287070841
0.145 0.25276899 0.171 4286874483
0.255 0.245 0.18758501 4286939510
0.147 0.25230399 0.171 4286742892
0.249 0.24699999 0.188372 4285228885
0.15025501 0.25099999 0.171 4286742384
0.15025501 0.25177401 0.171 4286742384
0.25099999 0.24699999 0.18833999 4286281835
0.15099999 0.25099999 0.171231 4286741625
0.257 0.226686 0.153 4294967295
0.25299999 0.24699999 0.188328 4286742904
0.153 0.250624 0.171 4286677629
0.259 0.22596201 0.153 4294967295
0.255 0.24699999 0.18823199 4286676853
0.15675201 0.249 0.171 4286348409
0.15675201 0.249736 0.171 4286348409
0.15700001 0.249 0.17106199 4286481018
0.15899999 0.249 0.171682 4287466636
0.153 0.25099999 0.171414 4286478711
0.155 0.25099999 0.17219299 4286939776
0.15700001 0.25099999 0.17288299 4288387735
0.313793 0.237 0.14300001 4282269237
0.15899999 0.25230601 0.171 4290953406
0.31362799 0.23899999 0.14300001 4281939757
0.31362799 0.23899999 0.14476199 4281939757
0.303 0.23134801 0.14300001 4294967295
0.30500001 0.23272501 0.14300001 4294967295
0.31448498 0.229 0.14300001 4281479970
0.31448099 0.23100001 0.14300001 4282268456
0.30423 0.245 0.141 4288786614
0.30423 0.246031 0.141 4288786614
0.303 0.24892101 0.141 4288786614
0.303 0.24892101 0.141801 4288786614
0.30500001 0.245 0.14143899 4294967295
0.312868 0.245 0.141 4281150241
0.30500001 0.24699999 0.141496 4294967295
0.31231201 0.24699999 0.141 4280689689
0.22499999 0.238079 0.183 4287597702
0.31299999 0.245 0.14252999 4281018137
0.31336802 0.22499999 0.147 4282861110
0.31336802 0.22499999 0.14826401 4282861110
0.227 0.23767599 0.183 4287203457
0.30530399 0.233 0.14300001 4294967295
0.30530399 0.233 0.14339501 4294967295
0.31349301 0.227 0.147 4281613867
0.31349301 0.227 0.148478 4281613867
0.229 0.237396 0.183 4287006592
0.31419501 0.233 0.14300001 4282729782
0.232243 0.237 0.183 4287071358
0.232243 0.237271 0.183 4287071358
0.31404299 0.235 0.14300001 4282795322
0.22499999 0.23899999 0.183689 4287202939
0.227 0.23899999 0.18389599 4287005816
0.229 0.23899999 0.184122 4287203200
0.23100001 0.23899999 0.184229 4287466373
0.233 0.237 0.18310499 4286677885
0.193 0.23659 0.161 4294111987
0.235 0.237 0.18313499 4287137409
0.19499999 0.236084 0.161 4294506744
0.237 0.237 0.18339999 4287401351
0.197 0.23629899 0.161 4294506744
0.23899999 0.237 0.183532 4287335299
0.199 0.23657201 0.161 4293914349
0.233 0.23899999 0.184387 4287400581
0.19499999 0.22861999 0.15899999 4288588985
0.20100001 0.23667799 0.161 4292795611
0.235 0.23899999 0.184614 4287203457
0.197 0.22813299 0.15899999 4287669426
0.207 0.235 0.162985 4291216835
0.237 0.23899999 0.184668 4287203714
0.199 0.227724 0.15899999 4288128947
0.211556 0.233 0.161 4292006352
0.23899999 0.23899999 0.184966 4287137921
0.20299999 0.226924 0.15899999 4289641415
0.21427001 0.233 0.161 4291742666
0.21427001 0.233 0.162724 4291742666
0.241 0.237 0.183714 4286677881
0.205 0.22665299 0.15899999 4289181891
0.26300001 0.241914 0.17900001 4294967295
0.215 0.23333201 0.161 4291611080
0.215 0.23333201 0.16145301 4291611080
0.243 0.237 0.183744 4285955181
0.207 0.22639999 0.15899999 4289050306
0.26499999 0.242985 0.17900001 4294967295
0.245 0.237 0.183856 4285758055
0.212855 0.235 0.161 4292269778
0.20266901 0.227 0.15899999 4289048502
0.20266901 0.227365 0.15899999 4289048502
0.265017 0.243 0.17900001 4294967295
0.265017 0.243 0.17901601 4294967295
0.30347499 0.25299999 0.141 4294967295
0.30347499 0.254118 0.141 4294967295
0.24699999 0.237 0.18382201 4286087281
0.213 0.235073 0.161 4291348418
0.213 0.235073 0.161148 4291348418
0.20299999 0.227 0.15965401 4289113780
0.30268702 0.255 0.141 4294967295
0.27900001 0.241 0.18071401 4285229669
0.241 0.23899999 0.18483099 4286940286
0.21699999 0.233 0.161202 4290887612
0.20900001 0.22617701 0.15899999 4288984773
0.303 0.255 0.14122 4294967295
0.28099999 0.241 0.180344 4284178520
0.245 0.23899999 0.18494299 4286808440
0.211 0.22589999 0.15899999 4288984517
0.30500001 0.25299999 0.142722 4294967295
0.249 0.237 0.18389501 4286875006
0.28299999 0.241 0.179983 4284310360
0.213 0.225659 0.15899999 4289378505
0.221 0.246968 0.18700001 4287400322
0.31064302 0.25299999 0.141 4280229902
0.25099999 0.237 0.183917 4286347374
0.285 0.241 0.17963001 4285558370
0.216435 0.22499999 0.15899999 4289509832
0.216435 0.225245 0.15899999 4289509832
0.216435 0.225245 0.160569 4289509832
0.223 0.246058 0.18700001 4287334528
0.31099999 0.25299999 0.14160499 4280163342
0.25299999 0.237 0.18398 4284770643
0.287135 0.241 0.17900001 4285426015
0.287135 0.241 0.17904 4285426015
0.21699999 0.248509 0.18700001 4286939255
0.255 0.237 0.18399401 4284245323
0.287 0.25083101 0.175 4294967295
0.28299999 0.243 0.180785 4285492060
0.309809 0.255 0.141 4279638279
0.220938 0.24699999 0.18700001 4286873972
0.220938 0.24769099 0.18700001 4286873972
0.28714401 0.25099999 0.175 4294967295
0.28714401 0.25099999 0.17515899 4294967295
0.285 0.243 0.180296 4284900948
0.31099999 0.255 0.142929 4280097805
0.221 0.24699999 0.18701199 4287071101
0.288876 0.243 0.17900001 4284768338
0.288876 0.243 0.179764 4284768338
0.223 0.24699999 0.18738 4287005562
0.28299999 0.25616401 0.177 4294967295
0.189 0.250934 0.183 4287662982
0.191 0.25038499 0.183 4287663238
0.167 0.24648 0.17299999 4286152056
0.188811 0.25099999 0.183 4287531908
0.188811 0.251681 0.183 4287531908
0.163 0.248408 0.17299999 4286085747
0.189 0.25099999 0.183038 4287531651
0.165769 0.24699999 0.17299999 4286086262
0.165769 0.24750599 0.17299999 4286086262
0.191 0.25099999 0.183375 4287531650
0.167 0.24699999 0.173565 4286479993
0.170946 0.245 0.17299999 4286348664
0.170946 0.245847 0.17299999 4286348664
0.171 0.245 0.173023 4286546051
0.17299999 0.245 0.17385499 4287138444
0.175 0.245 0.17469999 4287532686
0.169 0.24699999 0.17424099 4286940290
0.175 0.24866 0.17299999 4292335317
0.183 0.246721 0.17299999 4289306012
0.177 0.248519 0.17299999 4293124833
0.17900001 0.248036 0.17299999 4294111729
0.182556 0.24699999 0.17299999 4294967295
0.182556 0.24755299 0.17299999 4294967295
0.183 0.24699999 0.173298 4294967295
0.185 0.246244 0.17299999 4290029220
0.18985899 0.245 0.17299999 4291677387
0.191 0.245896 0.17299999 4291414214
0.191 0.245896 0.173706 4291414214
0.18638201 0.24699999 0.17299999 4294967295
0.18638201 0.247768 0.17299999 4294967295
0.18638201 0.247768 0.173677 4294967295
0.30310401 0.249 0.141 4294967295
0.30500001 0.249 0.141479 4294967295
0.31186801 0.249 0.141 4280426261
0.30500001 0.25099999 0.14184301 4294967295
0.311349 0.25099999 0.141 4280360722
0.311349 0.25217101 0.141 4280360722
0.227 0.24474001 0.18700001 4286743421
0.229 0.244313 0.18700001 4286808954
0.23100001 0.243865 0.18700001 4287137660
0.193 0.23768699 0.163 4294704122
0.233 0.24316299 0.18700001 4287203456
0.195989 0.237 0.163 4294177779
0.195989 0.23706301 0.163 4294177779
0.235 0.24348301 0.18700001 4287202687
0.19786 0.237 0.163 4294506744
0.19786 0.237 0.163142 4294506744
0.237 0.24310601 0.18700001 4287006075
0.271 0.233 0.178276 4287071879
0.199 0.237046 0.163 4293782764
0.23899999 0.243266 0.18700001 4287006074
0.273684 0.233 0.177 4287269770
0.273684 0.233 0.177284 4287269770
0.20100001 0.23733501 0.163 4292927453
0.241 0.243072 0.18700001 4287137921
0.27500001 0.233577 0.177 4286875523
0.204439 0.237 0.163 4292005837
0.204439 0.237629 0.163 4292005837
0.243 0.24337399 0.18700001 4287203712
0.27700001 0.234345 0.177 4286612352
0.208735 0.237 0.163 4293651433
0.208735 0.237 0.163773 4293651433
0.245 0.24316001 0.18700001 4287202940
0.27900001 0.23469099 0.177 4286415225
0.273 0.237 0.18046899 4286677888
0.24699999 0.24335299 0.18700001 4287005561
0.27500001 0.235 0.178093 4286743419
0.27640399 0.237 0.17900001 4286610552
0.27640399 0.237 0.179498 4286610552
0.249 0.243338 0.18700001 4286939509
0.27700001 0.235 0.177494 4286546039
0.27700001 0.237316 0.17900001 4286479477
0.25099999 0.24321699 0.18700001 4287071098
0.27900001 0.235 0.17719099 4286282353
0.27900001 0.238041 0.17900001 4286281837
0.25299999 0.24321899 0.18700001 4287333759
0.28099999 0.234972 0.177 4286216308
0.27500001 0.23899999 0.180737 4286085493
0.255 0.243255 0.18700001 4287334527
0.28299999 0.234953 0.177 4285229925
0.27700001 0.23899999 0.18000901 4285888626
0.27900001 0.23899999 0.179625 4285558632
0.28099999 0.235 0.177018 4285755750
0.28099999 0.238345 0.17900001 4285493088
0.28323001 0.235 0.177 4285361765
0.28323001 0.235 0.17702901 4285361765
0.28299999 0.23871401 0.17900001 4285033052
0.285 0.23541901 0.177 4284965980
0.287 0.23611 0.177 4283782467
0.28099999 0.23899999 0.179342 4284703834
0.283829 0.23899999 0.17900001 4284572761
0.283829 0.23899999 0.179151 4284572761
0.285 0.23951401 0.17900001 4285230182
0.287 0.24088401 0.17900001 4285492583
0.193 0.22974899 0.161 4289115331
0.19623199 0.229 0.161 4288193973
0.19623199 0.229367 0.161 4288193973
0.197 0.229 0.16150999 4287734187
0.199 0.229 0.162715 4288126631
0.213 0.232563 0.161 4293256677
0.259 0.22574601 0.155 4292203985
0.26322699 0.22499999 0.155 4294967295
0.26322699 0.22518 0.155 4294967295
0.26322699 0.22518 0.155579 4294967295
0.31338799 0.241 0.14300001 4281676588
0.31338799 0.241 0.144137 4281676588
0.31326801 0.243 0.14300001 4281348136
0.31326801 0.243 0.143994 4281348136
0.19499999 0.242824 0.17900001 4287861647
0.197 0.242039 0.17900001 4287992718
0.200232 0.241 0.17900001 4287796623
0.200232 0.24161799 0.17900001 4287796623
0.19439301 0.243 0.17900001 4287730059
0.19439301 0.243517 0.17900001 4287730059
0.19499999 0.243 0.17917399 4287861131
0.197 0.243 0.17979401 4288058511
0.285 0.245 0.18088299 4284440659
0.199 0.243 0.18047999 4287992719
0.287 0.245 0.180272 4284309326
0.20100001 0.241 0.17930701 4287796621
0.287 0.24699999 0.180683 4285030744
0.20299999 0.241 0.17968699 4287795848
0.205 0.241 0.18040501 4287072130
0.312857 0.23899999 0.145 4282532149
0.20100001 0.243 0.180869 4287993485
0.31329501 0.237 0.145 4282531892
0.31329501 0.23846899 0.145 4282531892
0.31329501 0.23846899 0.14602099 4282531892
0.27500001 0.229 0.172912 4286677632
0.27700001 0.229 0.17284399 4286545790
0.27900001 0.229 0.172887 4286348410
0.28099999 0.229 0.172985 4286413944
0.28299999 0.229 0.17298599 4286414198
0.285 0.229 0.172961 4286348658
0.287 0.229 0.172622 4286020203
0.175 0.24042 0.169 4286416265
0.18099999 0.23894601 0.169 4286611076
0.183 0.23825 0.169 4287269005
0.177 0.23999201 0.169 4287072912
0.180851 0.23899999 0.169 4287928218
0.180851 0.23946001 0.169 4287928218
0.18099999 0.23899999 0.169047 4287995037
0.183 0.23899999 0.169899 4288061087
0.185 0.23758 0.169 4287861652
0.18765 0.237 0.169 4288191639
0.18765 0.237294 0.169 4288191639
0.189 0.237 0.169714 4287994518
0.191 0.237 0.170454 4287928471
0.185 0.23899999 0.170799 4288323486
0.287 0.255 0.18096299 4288979099
0.31245098 0.22499999 0.149 4283650888
0.31245098 0.22499999 0.15094 4283650888
0.31258899 0.227 0.149 4282533692
0.303 0.232811 0.145 4294967295
