# .PCD v0.7 - Point Cloud Data file format
VERSION 0.7
FIELDS x y z rgba
SIZE 4 4 4 4
TYPE F F F U
COUNT 1 1 1 1
WIDTH 1125
HEIGHT 1
VIEWPOINT 0 0 0 1 0 0 0
POINTS 1125
DATA ascii
0.141404 0.080808602 0.82914597 4287270811
0.14189501 0.083512098 0.829036 4285760397
0.100299 0.100205 0.84938502 4291415245
0.100947 0.103857 0.85145003 4291349452
0.103681 0.103958 0.85098201 4290758084
0.15784 0.101539 0.83831298 4290496204
0.125085 0.109529 0.85022104 4288652455
0.122414 0.11333 0.85403299 4289373349
0.15371899 0.11397599 0.84886903 4290495946
0.15435001 0.11858699 0.85240102 4290956239
0.13797301 0.00055924302 0.78376901 4278190083
0.137591 0.0039891703 0.786313 4278190080
0.14097799 0.0036486399 0.78424001 4278848790
0.140737 0.0066308598 0.78750402 4278519824
0.13701199 0.0091257002 0.78839505 4279839076
0.141947 0.015668601 0.79013205 4291284953
0.129363 0.0190285 0.79762095 4293455349
0.144991 0.020289499 0.79189599 4291548639
0.132388 0.024417199 0.79643202 4293390842
0.12902001 0.0267292 0.79854196 4293192950
0.113031 0.031893201 0.81014401 4293981174
0.111145 0.0404431 0.80924201 4293059813
0.111016 0.061138902 0.81991601 4292666344
0.111675 0.075178295 0.827447 4290889930
0.114589 0.077695899 0.83054698 4290890187
0.159352 0.098683797 0.83698797 4289510855
0.103712 0.110803 0.85698795 4290757828
0.155421 0.107199 0.843602 4290956499
0.15466601 0.111289 0.84656405 4290824913
0.13902299 0.001672 0.782269 4278256390
0.13766499 0.0073941001 0.78794301 4278190094
0.139283 0.0072574299 0.78442198 4278256912
0.13523801 0.010259 0.79036295 4290693862
0.137576 0.0102731 0.78846097 4283327893
0.14049999 0.0099951699 0.78898996 4279836982
0.133274 0.0131555 0.79393101 4291482069
0.137481 0.013390801 0.78928697 4291812065
0.13123101 0.0162201 0.79590398 4291614178
0.133104 0.0161721 0.79361403 4291218898
0.127939 0.069266804 0.82052696 4283258462
0.130996 0.069086902 0.81983298 4281942598
0.11959 0.073889099 0.82486606 4278190081
0.116907 0.078230105 0.830908 4288588720
0.120525 0.076949403 0.82837498 4279114525
0.123607 0.082735494 0.83038098 4288325036
0.13175701 0.082765505 0.82818401 4286680982
0.128566 0.0219961 0.798576 4294047741
0.14067599 0.0218737 0.79409599 4291087832
0.142891 0.0205216 0.79112595 4291153624
0.13633299 0.024287799 0.79495203 4292667633
0.14201401 0.023246799 0.793966 4291416797
0.144878 0.026798598 0.79611295 4293456377
0.13701199 0.040802103 0.79888201 4290890447
0.10901999 0.051617697 0.82340503 4293455344
0.106884 0.053819098 0.82664001 4294375931
0.128291 0.075109802 0.82713705 4285365134
0.13036799 0.074226402 0.82658303 4281021504
0.119595 0.078361295 0.83017105 4281156934
0.129896 0.078070298 0.82904899 4287402907
0.123015 0.084589504 0.83343101 4289772740
0.12530901 0.0833207 0.83047199 4288456623
0.15757899 0.089361399 0.83144599 4291417050
0.133481 0.0054298602 0.78751898 4289572264
0.12991901 0.020907801 0.798329 4294376189
0.112469 0.041824602 0.80764699 4292139483
0.10674401 0.056408901 0.82837999 4293718776
0.10214499 0.073174402 0.83792901 4292600553
0.13116701 0.071755901 0.82241899 4278190083
0.100093 0.0849085 0.84225899 4292402143
0.127575 0.084315002 0.83239299 4288785065
0.14514101 0.0833188 0.82952601 4285104006
0.10008699 0.087774903 0.84360301 4292204505
0.141323 0.087698899 0.83173102 4289837764
0.145263 0.0870547 0.830778 4289509311
0.101131 0.092898801 0.84520799 4291086535
0.116406 0.091426298 0.839212 4286349692
0.156222 0.093212001 0.83495098 4290955985
0.15339799 0.096294999 0.836667 4286614152
0.15665199 0.095774397 0.83592904 4288589230
0.099202104 0.10197899 0.85162503 4291875536
0.099272303 0.10415 0.85337204 4291546315
0.112026 0.111415 0.85408199 4290889672
0.13533099 0.0083819106 0.78786403 4281813374
0.139292 0.015737999 0.79154605 4290692813
0.13548599 0.0190391 0.79116398 4290824657
0.135885 0.0218328 0.79336703 4291153879
0.138936 0.0205858 0.792005 4290758865
0.149321 0.039636001 0.80334198 4293062394
0.102387 0.072472103 0.83348 4293059818
0.115278 0.075981304 0.82937002 4291087050
0.13185601 0.0755018 0.827878 4283389793
0.15700001 0.091905996 0.83323902 4291351001
0.151951 0.093257003 0.83419895 4290626500
0.155735 0.096233197 0.83678401 4287207308
0.13484399 0.0032332202 0.786587 4280361254
0.13673599 0.0038352599 0.78541201 4278321412
0.129931 0.0137401 0.79369301 4291416544
0.116542 0.0271271 0.814955 4294835710
0.110656 0.033384301 0.81213999 4294243571
0.113464 0.039756499 0.80891997 4291218641
0.11128701 0.0530896 0.82000101 4292074468
0.146036 0.053252801 0.80768299 4290957013
0.14946401 0.053421699 0.80931699 4291417571
0.151575 0.058075599 0.81265599 4291549410
0.152303 0.057004798 0.811652 4292141294
0.150849 0.060373697 0.81289303 4291022548
0.152932 0.058754198 0.81111103 4291483879
0.150316 0.062737897 0.81445205 4291087569
0.153016 0.061774399 0.81321901 4290825943
0.123503 0.067552201 0.82063097 4289180094
0.153166 0.066193998 0.81502002 4290496719
0.104055 0.070878997 0.82987404 4292731369
0.123789 0.070625395 0.82212901 4283590775
0.105212 0.073706597 0.83330202 4292205535
0.135903 0.0720715 0.81919301 4278190080
0.13918801 0.073747806 0.82277501 4278190085
0.142647 0.074288905 0.82381701 4279966507
0.102582 0.077272497 0.83466399 4292533985
0.126129 0.075794704 0.826249 4287533465
0.13661501 0.074371904 0.82430798 4279572513
0.14319299 0.077188201 0.82544798 4286216844
0.13578799 0.077968597 0.82685196 4287995051
0.139443 0.078230903 0.82802194 4287271845
0.12774999 0.081925198 0.83170801 4286022795
0.158455 0.094898693 0.83503604 4290430161
0.099245302 0.09888 0.850169 4292335573
0.123138 0.110387 0.85107702 4288585632
0.15511099 0.11139701 0.848598 4291219670
0.15629201 0.116871 0.85147399 4291087570
0.15968201 0.118615 0.85555702 4291219411
0.15736701 0.121042 0.855959 4291218897
0.13483299 0.0065618502 0.78816402 4281678667
0.132606 0.018177999 0.79172802 4291219416
0.134694 0.0180887 0.79279602 4291021522
0.131889 0.0206428 0.79578495 4292075243
0.13739301 0.020401601 0.79365599 4291022291
0.124969 0.024437299 0.80186498 4293851133
0.12693 0.023955999 0.802158 4293456636
0.111945 0.0277601 0.81731701 4292863978
0.143225 0.025601801 0.79599595 4292930034
0.133128 0.029335801 0.79806799 4292601328
0.13254201 0.0317594 0.79878497 4292403693
0.121499 0.064717002 0.82076299 4291021774
0.12547299 0.067254797 0.81889898 4288982714
0.13422799 0.068815 0.81806403 4281809969
0.12711799 0.073490404 0.82254797 4282469731
0.13245501 0.0768108 0.82615995 4286219918
0.137448 0.082313202 0.82810605 4285169027
0.15449099 0.081786104 0.82602298 4291219672
0.100816 0.090521201 0.844926 4291612623
0.108186 0.093291096 0.84302098 4287735975
0.109677 0.096091799 0.84471196 4290627271
0.097555801 0.111289 0.86533505 4289901217
0.113137 0.109417 0.85302299 4289772990
0.102221 0.113243 0.860295 4291019192
0.139229 0.0035544802 0.78539896 4278454540
0.13237399 0.010543999 0.79121 4293322986
0.134619 0.0100867 0.79046899 4291548654
0.135491 0.0133406 0.79044896 4291678680
0.13896801 0.0113217 0.79043299 4286616231
0.12890601 0.0163396 0.79677802 4291810531
0.14210801 0.0149436 0.79180402 4291746531
0.11432701 0.0274837 0.81616402 4294113017
0.11387999 0.029788999 0.81405902 4293718518
0.110682 0.044454399 0.81330103 4293717999
0.114906 0.045094799 0.809605 4291350738
0.14658999 0.044180401 0.80306202 4292076018
0.123315 0.064351998 0.81847399 4291087313
0.150664 0.064703502 0.81490004 4290758862
0.121085 0.067885697 0.82236105 4289706434
0.149802 0.066959605 0.81734902 4290824655
0.11178701 0.073071197 0.826276 4290824139
0.153115 0.072769895 0.82037097 4291022035
0.099316202 0.082910106 0.84232897 4292862692
0.12232 0.027118299 0.80517298 4294770430
0.12022 0.030526301 0.80629998 4294901502
0.122023 0.032308701 0.80555606 4294901502
0.125512 0.0391002 0.80211496 4292205541
0.112076 0.0437968 0.80812901 4292665313
0.115364 0.049508799 0.81167197 4291679447
0.109404 0.056450699 0.82415402 4292403690
0.114064 0.0626432 0.82078999 4291087308
0.15247099 0.064968102 0.81512797 4291154388
0.099779502 0.071934193 0.83745694 4294178036
0.15306799 0.070339203 0.818003 4290759121
0.102211 0.078813404 0.83571506 4292599264
0.138552 0.075694196 0.826446 4281744716
0.13021401 0.0797325 0.826796 4286744206
0.105742 0.085631698 0.83936399 4290823620
0.125504 0.085957997 0.83242202 4287799459
0.106337 0.0973019 0.84428102 4290955466
0.14155 0.011437001 0.79025596 4284641142
0.105637 0.063855901 0.83047599 4292863469
0.112128 0.065419599 0.82296002 4291415503
0.131722 0.080849402 0.83073604 4285825411
0.14295501 0.090918504 0.83385402 4290496206
0.15309501 0.088107802 0.830055 4291022293
0.142845 0.094180897 0.83603603 4287469724
0.10733899 0.112462 0.85701001 4290823620
0.13333599 0.0108341 0.79049402 4292994278
0.13584301 0.0109316 0.78916496 4289510872
0.140388 0.018392 0.78946602 4290627021
0.113165 0.0282855 0.81523198 4293718772
0.123109 0.0401995 0.803626 4291021773
0.108195 0.055947699 0.82259601 4292929775
0.110468 0.064778097 0.82458097 4292336862
0.152624 0.062999696 0.814937 4291089110
0.112808 0.067862704 0.82535303 4290824395
0.121441 0.079429604 0.83193904 4282538594
0.123976 0.079562299 0.83142197 4285169030
0.127177 0.081107199 0.83007002 4284971385
0.13067399 0.083098799 0.832331 4287207070
0.13074401 0.0864392 0.83462799 4288981686
0.133398 0.085337304 0.83212399 4289311416
0.104592 0.090802595 0.84244299 4290560969
0.13362199 0.087763496 0.83395398 4287995039
0.104721 0.093481004 0.84455401 4290758088
0.113359 0.093022101 0.841609 4285956992
0.120373 0.091122396 0.83858299 4288192152
0.15348801 0.090706199 0.832196 4291219158
0.100236 0.095601402 0.84668201 4291612110
0.10296 0.095376603 0.84548199 4290758086
0.107829 0.096486196 0.84625 4290955208
0.12850301 0.095741503 0.840469 4288193960
0.115016 0.098755203 0.84406894 4288785074
0.130307 0.025648501 0.79921603 4293258486
0.138962 0.0356295 0.79851002 4292008937
0.110937 0.038177397 0.808025 4293191656
0.113601 0.037383597 0.80714303 4292008156
0.13481501 0.042940103 0.80029303 4290693069
0.149288 0.048790403 0.80729902 4292667128
0.14778 0.0512379 0.80813503 4291483362
0.150875 0.0510794 0.80909002 4292996603
0.121845 0.055217203 0.81228697 4291350484
0.145007 0.055086497 0.809286 4291022036
0.11258 0.062194098 0.822855 4292336607
0.147815 0.064616896 0.81608099 4290758862
0.154248 0.0639318 0.81444705 4291088858
0.145391 0.066548899 0.81762999 4290627789
0.132153 0.070138097 0.81856704 4278914059
0.108295 0.073883101 0.83033198 4290692808
0.110679 0.074015997 0.82908499 4290758343
0.116317 0.072830297 0.825284 4289308320
0.14261399 0.071962096 0.82065398 4283979605
0.105452 0.076598294 0.833018 4291283915
0.130291 0.076563902 0.82523197 4286680986
0.103522 0.081167705 0.83894199 4291744462
0.113498 0.078580901 0.83197999 4290889928
0.155664 0.078559801 0.82380199 4291088087
0.15562801 0.082049794 0.82484001 4291087830
0.112199 0.0897194 0.83976799 4287600528
0.13523801 0.091447406 0.83494395 4287207583
0.111102 0.094801202 0.84339601 4288917682
0.139533 0.094120301 0.83692199 4288325542
0.102276 0.098669603 0.84807301 4290889414
0.117235 0.098283201 0.84326398 4288982186
0.14336501 0.097107396 0.83811104 4285695624
0.103219 0.102107 0.84940004 4290823623
0.14476 0.100869 0.84011602 4289903553
0.105971 0.106372 0.85372305 4290823876
0.149823 0.103597 0.84205496 4290430413
0.11530101 0.108462 0.85226601 4288128676
0.144146 0.107485 0.84497803 4286945181
0.153101 0.10667299 0.84419501 4289904072
0.12751201 0.112305 0.85266995 4288121740
0.147508 0.110296 0.84735602 4288982702
0.157546 0.118405 0.85362405 4291350739
0.13636099 0.00163335 0.785128 4278715908
0.110914 0.038750701 0.80728197 4292994022
0.10558899 0.103752 0.85109496 4290889412
0.103536 0.106733 0.85462999 4290823363
0.142226 0.10457499 0.84217 4282078786
0.121383 0.0245397 0.81257004 4294901502
0.118282 0.027733 0.81065196 4294901502
0.143498 0.029424401 0.79553199 4292602104
0.117719 0.033351298 0.80625999 4294638330
0.112103 0.036091499 0.80611497 4293454577
0.118835 0.036013197 0.80601299 4292402654
0.113795 0.053050701 0.81737798 4292337125
0.105152 0.056795299 0.83226597 4294244348
0.114251 0.056358002 0.81833696 4292403430
0.114994 0.059405103 0.81946898 4291679190
0.117868 0.062644102 0.819727 4290824397
0.098222397 0.0864373 0.84440196 4293388521
0.098613501 0.088758595 0.84550101 4293190887
0.14094201 0.025538601 0.79641104 4293126900
0.110615 0.048743401 0.81833804 4293257195
0.13429201 0.065193497 0.817752 4290824122
0.148222 0.0682531 0.81822699 4290759120
0.152523 0.067685999 0.81628698 4290627791
0.10235 0.076248899 0.83704305 4292468196
0.146293 0.074863896 0.82210898 4281280535
0.152734 0.079869002 0.82553697 4290957272
0.156332 0.085852504 0.82787597 4291285208
0.115153 0.025244899 0.81952101 4294375418
0.117108 0.0249044 0.81815898 4294901502
0.119286 0.0239645 0.81469703 4294901502
0.120909 0.024277501 0.80977196 4294901502
0.110124 0.046535801 0.81467795 4293717745
0.107492 0.053810798 0.828502 4294375931
0.11825 0.052738801 0.81156099 4292074206
0.108901 0.061865199 0.82344502 4292534761
0.119386 0.061021999 0.816787 4290955980
0.136279 0.066112295 0.81811899 4290823352
0.13855299 0.067322306 0.81886798 4290756530
0.102022 0.070952497 0.83600503 4293322989
0.12673999 0.073691301 0.825661 4284574077
0.13397099 0.072535202 0.82325405 4278190086
0.154559 0.0843459 0.82823998 4291088344
0.15688001 0.087494299 0.82994801 4291153623
0.12949 0.0113691 0.794029 4287932619
0.128383 0.0136648 0.79508698 4286158000
0.12193801 0.0226702 0.81403196 4294046711
0.122109 0.0280424 0.80871004 4294901502
0.118108 0.048742801 0.80969703 4291153358
0.12203901 0.050781101 0.810278 4291416789
0.13097501 0.0550403 0.81015098 4291219411
0.135067 0.061062902 0.81501901 4290890189
0.14132699 0.063454501 0.81627899 4290758861
0.121191 0.071829803 0.82533699 4280827442
0.104054 0.088301599 0.84194702 4290889416
0.102354 0.105181 0.85293901 4290889412
0.111725 0.030312501 0.81406301 4293652977
0.14279601 0.0306408 0.797261 4292733175
0.14593801 0.030879401 0.799514 4293522173
0.11596 0.0371993 0.804537 4291613398
0.111772 0.0427504 0.81017601 4292600291
0.113419 0.059823699 0.81880295 4291942362
0.111541 0.063896701 0.82119799 4291547603
0.139714 0.068950206 0.81880701 4288848025
0.14201801 0.068498902 0.81885898 4291152324
0.14494599 0.068923302 0.81841397 4291153105
0.142189 0.0749164 0.82097 4281481289
0.0993248 0.080013901 0.84224296 4293191145
0.117136 0.024198299 0.81702799 4294835709
0.11656199 0.025860399 0.815633 4294901502
0.117411 0.030667 0.80734998 4294901502
0.14435001 0.037100103 0.80101502 4292404980
0.14642799 0.036989599 0.79923999 4292339190
0.119518 0.039714601 0.80495101 4291087311
0.11490899 0.046954602 0.81062704 4291415761
0.107098 0.058643602 0.83090401 4292995570
0.104724 0.0613981 0.83325404 4293455091
0.122217 0.059672799 0.81703603 4290956240
0.101904 0.068225503 0.83319598 4293915124
0.136806 0.069655403 0.818919 4282334004
0.14669901 0.077696294 0.82506096 4280953891
0.15480401 0.076001801 0.823641 4291087831
0.098244496 0.095686398 0.84865803 4293322467
0.121401 0.101399 0.84459901 4288062118
0.147127 0.100687 0.84012401 4289772226
0.124531 0.104014 0.84586799 4288521640
0.130629 0.105148 0.84430104 4288193699
0.148082 0.107115 0.84464502 4290363845
0.140011 0.110514 0.84866697 4288063144
0.14111599 0.0144361 0.788683 4292009444
0.14071001 0.027874701 0.797382 4293193467
0.14307299 0.028321899 0.79637301 4293390845
0.109698 0.035080399 0.80892104 4294178034
0.145142 0.035179902 0.79930001 4292667640
0.118894 0.05816 0.81473297 4291153361
0.110188 0.079245903 0.83171898 4290758345
0.123838 0.079543404 0.82839698 4284969591
0.102957 0.085906699 0.84003103 4291021256
0.112707 0.098689795 0.84386796 4290232257
0.11020301 0.061636999 0.82219899 4292600554
0.106205 0.064973503 0.82672 4292600811
0.108876 0.070363499 0.82665098 4291283917
0.112291 0.070304498 0.82704794 4290824136
0.127564 0.086270697 0.83450705 4287996320
0.102708 0.091548502 0.84287298 4290954951
0.102156 0.108436 0.85624999 4291020485
0.13162601 0.115058 0.85237902 4288449668
0.111706 0.11720099 0.85817796 4289638822
0.129605 0.119325 0.85714501 4291020227
0.151493 0.118152 0.85215998 4290956496
0.14598501 0.033266202 0.80018699 4293259771
0.107521 0.080449402 0.83277696 4290758085
0.111051 0.0988869 0.84529197 4290824137
0.128096 0.101456 0.84268904 4288258725
0.14093401 0.020576499 0.79173398 4291021779
0.13423599 0.0224535 0.79557502 4292338412
0.13451199 0.0307006 0.796803 4292666606
0.12193801 0.039515901 0.80582297 4291087054
0.150215 0.0476753 0.805305 4292733176
0.120764 0.053824201 0.812271 4291350741
0.14789301 0.0543116 0.80995601 4291285721
0.148834 0.056591898 0.81156999 4290957271
0.101776 0.0685357 0.83740997 4293652467
0.12564 0.067947306 0.82036102 4287996590
0.103939 0.072289802 0.83220202 4292403174
0.099897601 0.0774654 0.839863 4293191400
0.102083 0.075106502 0.83393002 4292731878
0.10891201 0.0734424 0.82694799 4291021259
0.123399 0.0752979 0.82715398 4287271080
0.104203 0.080635101 0.83469802 4291217608
0.10701 0.083101094 0.83429998 4290889671
0.098441102 0.098277301 0.85091102 4293059297
0.13792999 0.0052711503 0.78523999 4278191117
0.13308001 0.0081359195 0.78831297 4289447652
0.13935401 0.0136053 0.79086202 4291746530
0.134564 0.019867701 0.79417998 4291022036
0.126546 0.0304488 0.80208695 4293258998
0.12821001 0.030292999 0.79915601 4292995827
0.121629 0.035400901 0.80445695 4293783537
0.12468 0.035823502 0.80061603 4294310140
0.14924699 0.0371668 0.80196697 4293522427
0.127617 0.038993098 0.80025297 4292272102
0.139551 0.080644801 0.828596 4287073692
0.14407499 0.083040297 0.82754499 4285168773
0.142573 0.088218696 0.83257395 4290693073
0.14606799 0.088076502 0.83181298 4290627020
0.14549001 0.090852201 0.83282799 4291350741
0.098271102 0.093164399 0.84753996 4293388518
0.107356 0.10419101 0.85113299 4290824134
0.14439501 0.10332 0.84240401 4289443259
0.100344 0.109652 0.85662299 4291019969
0.108168 0.10965 0.85501701 4290823622
0.151446 0.113568 0.84961903 4289772482
0.142802 0.0194417 0.79188502 4290956500
0.138118 0.022459401 0.79511702 4291416797
0.110123 0.030157302 0.81473798 4294178549
0.12968101 0.030085599 0.79720896 4293258231
0.131744 0.035600699 0.79752004 4292337640
0.123706 0.0385678 0.80112904 4292533987
0.129916 0.038942102 0.79890501 4292337383
0.14780499 0.039318401 0.80219895 4292799226
0.123201 0.042222999 0.80559802 4291153362
0.12582 0.041986901 0.80391997 4291351000
0.117775 0.046700802 0.808424 4291021255
0.099479698 0.074884303 0.83974105 4294046450
0.15756699 0.089615896 0.83106798 4291284953
0.10593 0.10149299 0.84888703 4290824134
0.109602 0.104862 0.850061 4290824136
0.153191 0.117783 0.85160899 4290955984
0.110232 0.035875302 0.80725199 4293915632
0.13396001 0.0352435 0.79669499 4292337385
0.13280299 0.044940799 0.80299103 4290824912
0.14724699 0.0494086 0.80558598 4291417573
0.111 0.0589194 0.819493 4292534762
0.102328 0.065850899 0.834916 4293915123
0.099911302 0.0689831 0.83801204 4294441466
0.11424299 0.0709415 0.82628697 4291743956
0.107021 0.076534696 0.830966 4290692550
0.098453499 0.090243503 0.84801704 4292665313
0.12492801 0.019404499 0.79965901 4289972701
0.134821 0.025050199 0.79686797 4293588220
0.135134 0.0277685 0.79723901 4292798706
0.131668 0.0295757 0.79671997 4292929779
0.109642 0.0332461 0.80832601 4294375412
0.13404299 0.032663502 0.79594898 4292600812
0.130495 0.042336199 0.80165195 4291153365
0.132247 0.041184898 0.79947996 4291153109
0.15243 0.059564497 0.81340396 4291681254
0.14671201 0.081435405 0.82736295 4281090622
0.138227 0.085060999 0.82867604 4288916919
0.14706799 0.084117897 0.82788897 4284840572
0.13912 0.087090701 0.83168203 4288851897
0.13663 0.114687 0.85096598 4289702568
0.133246 0.0128721 0.790811 4291679703
0.122555 0.0253454 0.80927598 4294901502
0.127529 0.025533101 0.79920799 4293587451
0.146685 0.0261425 0.79734802 4293850364
0.127856 0.042034 0.80324703 4291811807
0.144465 0.050233599 0.805363 4290890964
0.14976899 0.0622827 0.81327701 4290890706
0.114191 0.0659464 0.82260102 4290890188
0.128556 0.0158231 0.79355901 4292008931
0.13221601 0.027679399 0.79773796 4292864498
0.1151 0.0338022 0.80891305 4294638589
0.130955 0.032839801 0.79681301 4292863728
0.121086 0.037015099 0.80558002 4291810776
0.12874201 0.0365065 0.79944098 4292469225
0.111316 0.056975801 0.81891304 4292535017
0.1026 0.063049503 0.83276999 4294310138
0.110999 0.067685001 0.82228601 4291284431
0.110697 0.070710294 0.82407898 4291021259
0.113807 0.070902601 0.82366401 4291283918
0.117652 0.087654799 0.83601201 4291087304
0.147267 0.091443099 0.833565 4291416278
0.12906301 0.0934176 0.83811498 4288455850
0.12692 0.096390098 0.84152502 4288653996
0.15350799 0.100522 0.84021199 4289575101
0.15082499 0.10682499 0.84423298 4289706946
0.13286999 0.0196856 0.79245901 4291352030
0.11637101 0.033705004 0.80528301 4294572537
0.12657 0.032942299 0.79950297 4293521656
0.109198 0.054380797 0.821639 4292534762
0.106808 0.0574705 0.82503599 4293784055
0.131937 0.0568064 0.81248999 4291022035
0.150567 0.0579913 0.81068903 4290957015
0.13394201 0.062871799 0.81626701 4290889933
0.119668 0.0663938 0.82231098 4291153617
0.150112 0.066312 0.815377 4290693070
0.11610299 0.0687543 0.82214803 4290692560
0.14509 0.071617499 0.82054496 4288322714
0.10039499 0.082524203 0.84159601 4292533729
0.099394701 0.090603404 0.84227902 4293059812
0.112716 0.104307 0.848297 4290100148
0.13692999 0.0023976299 0.78348702 4278387205
0.137601 0.0079621002 0.78578901 4278190095
0.13124001 0.0173245 0.793055 4291877088
0.12676999 0.021071101 0.798383 4294376187
0.12896001 0.020513501 0.79569596 4294507517
0.11436699 0.026777901 0.81721401 4293981688
0.14371601 0.030503299 0.79865301 4292930297
0.110761 0.0553049 0.81844199 4292468969
0.113256 0.055324402 0.81648201 4292534760
0.12950701 0.061165698 0.81448996 4291021776
0.113789 0.064183101 0.819161 4291087309
0.118486 0.072593004 0.82391196 4281087020
0.112697 0.079717599 0.83008802 4291021260
0.14115401 0.079695605 0.82722998 4287994532
0.11609 0.0828996 0.83197302 4290955470
0.120041 0.084875099 0.83411604 4290824394
0.112155 0.101423 0.84558803 4290495427
0.13495301 0.0051033804 0.78483897 4278452739
0.14184 0.0139876 0.79152697 4291746272
0.141018 0.016591201 0.789307 4290758866
0.144013 0.019124001 0.78975302 4291219677
0.134709 0.038808499 0.79872602 4291482587
0.127554 0.044445898 0.80307597 4291285206
0.105165 0.059625402 0.83188599 4293652469
0.116743 0.061412901 0.81786603 4290693324
0.116767 0.0708699 0.823201 4288521384
0.120453 0.070618205 0.82182205 4282932819
0.15503199 0.086567 0.82723904 4291153624
0.15842301 0.086936504 0.82788599 4291417309
0.106711 0.094957396 0.84360701 4290560195
0.158334 0.12067 0.85394096 4291087826
0.135261 0.121318 0.85582101 4290099890
0.127507 0.0172871 0.798132 4292797417
0.114832 0.038667399 0.80506301 4291285202
0.12878901 0.054112703 0.81085199 4291088083
0.114667 0.066434503 0.82046503 4291284174
0.150383 0.069286697 0.817478 4290759375
0.13943401 0.071479104 0.82194597 4280755228
0.099727996 0.074233301 0.83501399 4293849072
0.15565899 0.080733001 0.82599801 4291285466
0.107393 0.098917603 0.84620398 4290889671
0.101693 0.10351799 0.85352099 4291217351
0.113167 0.106112 0.84974802 4289180076
0.153778 0.108895 0.844396 4290561487
0.102521 0.116374 0.86005902 4289571735
0.136048 0.0276141 0.79419601 4293127670
0.148531 0.027678801 0.79760998 4294573822
0.144155 0.048044998 0.80433303 4290562769
0.14702299 0.046912801 0.80392998 4291614698
0.1139 0.053071801 0.81634498 4292271587
0.114927 0.057231899 0.81610101 4292271327
0.116368 0.059149399 0.81638396 4291152847
0.154549 0.096441202 0.83554697 4286746507
0.144814 0.113084 0.85050702 4290233542
0.154761 0.116581 0.850407 4290956497
0.151978 0.120414 0.85363001 4291021775
0.13642301 0.0323852 0.79488504 4292732400
0.116338 0.056460399 0.81439203 4291877080
0.131824 0.059669398 0.814583 4290956239
0.14033701 0.090667501 0.834732 4287407009
0.098363802 0.097971901 0.85004199 4293059038
0.124595 0.0211068 0.80039501 4293061359
0.111125 0.035277303 0.807836 4294178296
0.138537 0.070227206 0.82083696 4282531647
0.13588201 0.014909799 0.78925204 4291087311
0.133075 0.059181303 0.81354898 4291153620
0.126569 0.079106793 0.829409 4284246363
0.119586 0.095898002 0.84091496 4288324520
0.14197701 0.099230699 0.83928001 4288588974
0.146965 0.098368205 0.83803499 4285957520
0.119171 0.101802 0.84452599 4288127394
0.119135 0.105086 0.84670597 4288127656
0.105295 0.112154 0.85523701 4291283142
0.126046 0.036617 0.80193901 4294047482
0.11355 0.057939202 0.81733698 4292731882
0.114139 0.060165599 0.81712002 4291744982
0.138795 0.079704203 0.82589 4287533729
0.12140699 0.082544096 0.83106297 4288523184
0.13048699 0.084004901 0.83144897 4288785332
0.117028 0.086255699 0.83365196 4291087310
0.119827 0.089466698 0.83541101 4289902516
0.128537 0.088933803 0.83424801 4286024848
0.114001 0.092251897 0.83828801 4286022524
0.13863601 0.0119015 0.78859901 4288590535
0.111041 0.028175401 0.81351298 4294309623
0.13912301 0.070986196 0.819089 4282268210
0.13824001 0.033764303 0.796794 4292206572
0.134257 0.047928799 0.80471897 4291087827
0.13552499 0.050549801 0.807163 4291021776
0.121555 0.112629 0.85198605 4289703342
0.12194 0.115769 0.85425299 4290821312
0.12706 0.022719499 0.799752 4293916669
0.134397 0.0233656 0.7931 4293127413
0.109541 0.052223701 0.82106704 4293783539
0.118654 0.051193599 0.810417 4292205794
0.12425701 0.057068698 0.81217498 4291350483
0.122623 0.062000498 0.81634802 4291021519
0.132447 0.081547096 0.83084899 4285694598
0.098713301 0.088052496 0.84222198 4293783021
0.10708001 0.0913397 0.84298402 4288326308
0.12596801 0.0290775 0.80025297 4293588220
0.119517 0.043283697 0.80556095 4291482069
0.130283 0.0454835 0.80361903 4291153105
0.117139 0.0488347 0.81188202 4291416016
0.12863299 0.048249401 0.80620098 4291153363
0.13338099 0.051365003 0.80727696 4291022034
0.147393 0.0515517 0.80664206 4290957017
0.13283099 0.053714201 0.80960602 4291022033
0.135766 0.0568946 0.81132704 4291022035
0.145445 0.057213001 0.80949801 4291087570
0.141084 0.059921101 0.812163 4291087827
0.108057 0.0637981 0.82509601 4292600296
0.105801 0.069783404 0.83113503 4292337380
0.133553 0.082133003 0.82891804 4285694861
0.13482201 0.00725749 0.78670204 4279838284
0.102942 0.096543901 0.84749299 4290692036
0.113358 0.0954597 0.84198201 4288982704
0.138053 0.095097199 0.83626503 4288259752
0.149938 0.101121 0.83970803 4289903810
0.12419999 0.030577 0.804488 4294442238
0.147121 0.041923802 0.80401099 4292931067
0.14697099 0.0455653 0.80446994 4292338418
0.105408 0.0980305 0.84830296 4290889671
0.110725 0.106622 0.84939897 4291086541
0.135833 0.0051055597 0.78843403 4278255617
0.121952 0.0227012 0.80682003 4293785079
0.12452 0.022964301 0.80088896 4294704894
0.114835 0.062666997 0.81779402 4291087053
0.124504 0.076689303 0.82810199 4287270036
0.150571 0.081941597 0.82716697 4285301420
0.15015401 0.085191198 0.82848603 4288062898
0.13785699 0.011599599 0.787651 4288394190
0.12768801 0.0279897 0.79904902 4293521915
0.130275 0.028024402 0.79896003 4292930035
0.12026 0.030382099 0.80598605 4294901502
0.123304 0.032359 0.80338097 4294901502
0.12502401 0.031364597 0.80115598 4294441725
0.115714 0.035207901 0.808137 4293717745
0.121115 0.034086701 0.806104 4294704123
0.126017 0.033819698 0.80192399 4293850361
0.112154 0.051766399 0.81715304 4292074212
0.115802 0.052150797 0.81232798 4292337636
0.11427201 0.054950699 0.81473601 4292535018
0.116161 0.054594699 0.81343597 4292534245
0.103474 0.065599702 0.83309495 4293914868
0.132337 0.071563497 0.82090199 4278190080
0.121301 0.099240899 0.84195203 4288982190
0.109308 0.113486 0.85627401 4290955207
0.13381 0.0118854 0.78874296 4292797159
0.13484 0.016963599 0.79012799 4290890189
0.143332 0.016809601 0.78877199 4291022297
0.137448 0.018281799 0.79020399 4290692810
0.145521 0.0400711 0.80065 4292273140
0.15087399 0.0530793 0.80721503 4292404209
0.135132 0.074419796 0.82270896 4280757322
0.113501 0.081865802 0.83122402 4291021262
0.114119 0.084368497 0.833134 4290955724
0.117125 0.083771497 0.83193499 4290889934
0.11821499 0.0256886 0.81230301 4294901502
0.114602 0.030475099 0.80733597 4294901502
0.114301 0.033369802 0.80596399 4294901246
0.113767 0.0351399 0.804717 4294112245
0.13992399 0.051193804 0.80609196 4290956241
0.13783599 0.0537754 0.80841601 4290956241
0.118253 0.066676594 0.81957203 4291284688
0.15275501 0.064914599 0.81474 4290891220
0.118441 0.079252504 0.828749 4284446852
0.124915 0.081927501 0.83225703 4287009430
0.12304901 0.0861618 0.83225405 4290561995
0.118068 0.091647498 0.83810198 4286679172
0.10528 0.095155299 0.84530199 4290889160
0.124975 0.102831 0.84389597 4288456100
0.11814 0.043664001 0.80665505 4291416275
0.123108 0.048198003 0.80609101 4291614425
0.118967 0.0564791 0.812657 4291679190
0.117887 0.069131598 0.82022101 4288390572
0.10156401 0.0878613 0.84201598 4291612623
0.122821 0.098015293 0.84147996 4289508275
0.0965432 0.110304 0.86203998 4290493095
0.10696299 0.107794 0.85289598 4290889415
0.119921 0.046562698 0.80640805 4291613652
0.138761 0.045528799 0.80246103 4290758862
0.120526 0.049409501 0.808626 4291482326
0.138465 0.0487637 0.80434901 4291153364
0.10432801 0.064053297 0.82818502 4293980659
0.146157 0.063088201 0.81379795 4290824653
0.13166299 0.0919789 0.83550704 4288523182
0.0975127 0.107715 0.86197805 4288914825
0.15635699 0.108704 0.843683 4291219412
0.12906599 0.113864 0.85150599 4288514948
0.141041 0.120406 0.85592103 4290824133
0.14354201 0.0602042 0.812356 4291021777
0.112643 0.071678102 0.82473296 4290955724
0.120726 0.073056996 0.82240897 4279376158
0.123087 0.073526904 0.82269394 4287005583
0.12683199 0.094818495 0.83788502 4287996324
0.13502601 0.094238997 0.83740401 4288325545
0.12867101 0.10485 0.84511703 4288587431
0.099833295 0.11025801 0.86019897 4290756794
0.15304801 0.12216 0.85506797 4290823616
0.121907 0.059127901 0.81394702 4291152847
0.124638 0.061621699 0.81518 4291021775
0.121067 0.064254098 0.81751299 4291284689
0.110162 0.068431996 0.82419002 4291218636
0.147543 0.072217502 0.82094204 4288915630
0.13629499 0.091116093 0.83559 4287273374
0.134515 0.097054198 0.83828104 4288194733
0.156183 0.095831499 0.835024 4288260262
0.13052601 0.101604 0.84206802 4288653220
0.13277601 0.10153501 0.84151703 4290231230
0.136455 0.10434201 0.84288704 4289508012
0.129207 0.107939 0.84700406 4289442235
0.136812 0.107414 0.845698 4288917433
0.126081 0.110224 0.849572 4289046441
0.139173 0.0076307403 0.78855103 4278322192
0.13629299 0.0479961 0.80431402 4291021778
0.113621 0.05229 0.81327301 4292600550
0.112613 0.055138901 0.818138 4292403174
0.121541 0.056495201 0.81278598 4291284690
0.126415 0.057638902 0.81366199 4291153361
0.12561901 0.062723301 0.81772602 4290890190
0.10646901 0.073843099 0.83197701 4291744724
0.13500799 0.077829398 0.82880104 4287797931
0.108299 0.088519 0.84002 4288390814
0.113913 0.091472298 0.84066904 4285955964
0.115998 0.095528506 0.841326 4288127909
0.132517 0.0942256 0.83842498 4288390827
0.123103 0.100497 0.84293699 4288324775
0.12963299 0.098574504 0.83959103 4289837505
0.13185801 0.1078 0.84698498 4289311669
0.15560001 0.120853 0.85361105 4291087568
0.138521 0.017083701 0.78918105 4290627020
0.134845 0.0512661 0.80563003 4291153875
0.135534 0.053767201 0.80931896 4290890703
0.138965 0.0572672 0.81016499 4291087826
0.126415 0.065123901 0.82002401 4291416532
0.129329 0.067607105 0.81803399 4287140766
0.15603301 0.0665861 0.816854 4291483876
0.156057 0.069387801 0.81801003 4290891737
0.151715 0.075487599 0.82146001 4290035140
0.118597 0.080738999 0.83245897 4287734962
0.125467 0.098420307 0.84085304 4289376945
0.12057599 0.104183 0.845411 4288588203
0.11900499 0.115283 0.85671699 4290955720
0.116946 0.118199 0.858845 4290033839
0.13680701 -0.00061252702 0.78390503 4278781967
0.139497 0.023139201 0.79303497 4291417309
0.145099 0.0254001 0.796 4293127670
0.13306899 0.030998301 0.79687595 4292403948
0.147974 0.033436403 0.800255 4293062652
0.126232 0.048187301 0.80664003 4291219155
0.124181 0.051353902 0.80927199 4291284947
0.109581 0.063803598 0.82158697 4292731881
0.107799 0.0693423 0.82807702 4292205277
0.120677 0.068332002 0.81995302 4289180343
0.123056 0.069008902 0.81955701 4286549399
0.15449999 0.0939871 0.83392602 4290101441
0.114332 0.102631 0.84657395 4289311159
0.155479 0.099128999 0.83692902 4286289551
0.158298 0.101684 0.84100199 4290956241
0.14196001 0.106828 0.84358501 4282277198
0.13931799 0.117235 0.853113 4289966001
0.13124001 0.031792298 0.79901701 4292469742
0.142738 0.0450592 0.802109 4290562255
0.132291 0.0661043 0.81884199 4289640888
0.122503 0.077879801 0.82979304 4282271575
0.13836999 0.078041099 0.82973105 4286942617
0.115526 0.088395603 0.83673197 4290494907
0.154567 0.104605 0.84321302 4290956501
0.116342 0.110622 0.85282999 4289706686
0.138539 0.113547 0.85145801 4289506993
0.14324899 0.11720201 0.85296398 4290560969
0.15578 0.12076899 0.85653001 4291481811
0.129051 0.018544201 0.79974002 4293719031
0.153401 0.068966202 0.81723702 4290627793
0.12169001 0.0753498 0.82745504 4280362302
0.119424 0.082721002 0.83178604 4288984249
0.123086 0.082744099 0.832219 4288522417
0.10989299 0.086901903 0.83746898 4290823356
0.112498 0.088532999 0.83709401 4289704624
0.124378 0.020109599 0.80484003 4286682022
0.123146 0.0369136 0.804277 4292928747
0.116804 0.042605203 0.80579305 4291416276
0.149993 0.081465699 0.82599801 4283788434
0.14124601 0.097387001 0.83804101 4286682782
0.135938 0.101229 0.84080601 4290889935
0.099818498 0.106555 0.85677397 4291809229
0.133974 0.104435 0.84337699 4290166215
0.13183099 0.0178576 0.79534101 4291680481
0.13598301 0.016901599 0.78969204 4290693067
0.13167399 0.020503901 0.797104 4292404977
0.15139501 0.091194399 0.83256298 4291284951
0.148039 0.10367 0.84124202 4290890449
0.15847799 0.119373 0.852503 4291087314
0.120258 0.0277809 0.80784899 4294901502
0.11831301 0.037717 0.80690098 4291153105
0.132852 0.040225498 0.80098295 4291219415
0.115113 0.0432777 0.80907398 4291350739
0.126724 0.051058602 0.80873299 4291219155
0.138477 0.120514 0.85584098 4290954947
0.136141 0.0097060809 0.79103696 4286224065
0.12846801 0.0424546 0.801718 4291679965
0.12634 0.045345999 0.80512094 4291482328
0.111264 0.066705801 0.82500601 4291350481
0.15762399 0.094280601 0.83384496 4290496205
0.13717799 0.097414397 0.83849299 4288719282
0.136425 0.117427 0.85341901 4290358706
0.124169 0.045313802 0.80614001 4291548120
0.13086301 0.0534725 0.80985302 4291219155
0.131714 0.078238197 0.83080399 4288323496
0.142079 0.110779 0.84859699 4288588462
0.110776 0.050130002 0.82212597 4292468969
0.129572 0.068189003 0.82161903 4287207337
0.098293506 0.080908798 0.85003603 4293849072
0.098005503 0.092805699 0.85113299 4293191397
0.098832898 0.095371202 0.851906 4292927715
0.13291401 0.0078573301 0.79164696 4293784309
0.120389 0.0383077 0.80535901 4291086796
0.107873 0.0652574 0.82849598 4292469225
0.099516802 0.073716596 0.84618902 4294178294
0.115889 0.072266601 0.82688498 4291545800
0.131662 0.073036596 0.82414299 4278454031
0.117714 0.074211307 0.82756299 4287665522
0.11668801 0.081874102 0.83438003 4290824402
0.11658899 0.0848893 0.834988 4291021258
0.118113 0.093911298 0.84122401 4286089355
0.12531 0.106485 0.84793299 4288390312
0.14254899 0.023206601 0.79291499 4291680482
0.126773 0.026804799 0.80278301 4293390585
0.14094099 0.028276699 0.795546 4292865018
0.14342399 0.027104901 0.79515302 4292996602
0.141066 0.030728702 0.797548 4292667636
0.119803 0.032775901 0.80783802 4294901502
0.141508 0.032738097 0.79840899 4292535539
0.142565 0.032147203 0.79603601 4292338932
0.119484 0.035339899 0.80755001 4293389548
0.143767 0.034403998 0.79861903 4292404468
0.145684 0.034047998 0.79748601 4292667895
0.113685 0.045476202 0.81276399 4291679450
0.119844 0.044725202 0.808586 4291350485
0.110307 0.049152199 0.82510304 4293389554
0.112779 0.048109502 0.81747603 4291745244
0.137015 0.0598437 0.81339401 4291153362
0.134023 0.075449601 0.82820499 4282796633
0.151214 0.0787609 0.82536 4285500066
0.098322198 0.085325301 0.85111201 4293257451
0.10407 0.083959393 0.84069204 4291283914
0.106449 0.083068602 0.83726203 4290692294
0.105791 0.114372 0.85889697 4291085755
0.130642 0.015074899 0.79553002 4292008675
0.127379 0.019506101 0.80264503 4292929775
0.12565 0.0203589 0.80361795 4290233812
0.13348399 0.033665601 0.797979 4292140776
0.111723 0.047489699 0.82205606 4292337383
0.14025399 0.0559556 0.81134301 4290956500
0.14259 0.057544898 0.811526 4291022034
0.117075 0.065617502 0.82228196 4291087567
0.153585 0.076000504 0.82243502 4291219415
0.136353 0.0971542 0.83975798 4288654257
0.13534801 -0.000713018 0.78510398 4280031509
0.12806599 0.0145437 0.79760599 4289049287
0.107432 0.063551098 0.831007 4292535276
0.142388 0.078198798 0.82810104 4286942872
0.10392299 0.0793759 0.83719003 4291876309
0.14083201 0.0840296 0.83055604 4286813082
0.14528999 0.088059098 0.83441603 4291087828
0.12942301 0.014374601 0.79643101 4290825436
0.127178 0.021142701 0.802163 4293390069
0.118887 0.023471901 0.81832701 4294835710
0.113318 0.025893699 0.82030702 4289514194
0.110956 0.036816001 0.81092697 4293718258
0.110457 0.039260399 0.81205404 4293125608
0.110915 0.042253103 0.81617999 4293126637
0.113286 0.041914798 0.810902 4291745753
0.111566 0.046207201 0.82768595 4293916153
0.112098 0.044918399 0.81892902 4292469224
0.110501 0.048250999 0.82955199 4293981690
0.109568 0.051125303 0.82916403 4293587448
0.10701101 0.054350801 0.83245099 4294113277
0.109219 0.053569697 0.83042902 4293587192
0.108847 0.056678399 0.82928401 4293258486
0.10402101 0.062892199 0.83958 4293652727
0.12282 0.065238096 0.819745 4291088082
0.120975 0.068675905 0.82417703 4289181637
0.101207 0.073665097 0.84401703 4292863722
0.102137 0.074532799 0.838 4292403430
0.100652 0.077452905 0.84469897 4292534502
0.101937 0.077542096 0.83881402 4292271842
0.1017 0.079955906 0.84130102 4292402658
0.10178901 0.081902295 0.84070098 4292205278
0.100714 0.087322406 0.84520698 4292204764
0.098389603 0.0894664 0.85167998 4293060328
0.100203 0.089198604 0.847377 4292270811
0.102176 0.088826597 0.84375298 4291415245
0.098016605 0.091282703 0.85196799 4293125863
0.100973 0.092203401 0.84781998 4291941587
0.103526 0.091243893 0.844567 4290823622
0.141268 0.094516404 0.83794099 4288391084
0.100893 0.095285796 0.85009098 4291744209
0.0968761 0.10661 0.866772 4289638031
0.120224 0.024929101 0.81535196 4294901502
0.115811 0.027790701 0.81608504 4294704381
0.109134 0.036237299 0.81204498 4293519852
0.130431 0.0360393 0.80114299 4292140518
0.111767 0.045668598 0.821495 4292732141
0.112551 0.0442954 0.81554699 4292337377
0.122103 0.04434 0.80748701 4291350484
0.112234 0.050005201 0.82293904 4292074466
0.106275 0.0587104 0.834665 4293456119
0.105265 0.061734002 0.83715898 4293324277
0.10308 0.065281697 0.84359598 4293981688
0.104119 0.064989999 0.83843905 4293192691
0.10336 0.067614101 0.838678 4292732399
0.101908 0.070832804 0.84139502 4292929516
0.10327201 0.070305899 0.83742297 4292666090
0.118731 0.069915302 0.82499105 4288523207
0.11434 0.074576899 0.827977 4290955468
0.098696195 0.086940005 0.85298198 4293191660
0.099998102 0.085518204 0.84834802 4292468705
0.098555297 0.097929098 0.85487503 4292928227
0.117793 0.104946 0.84933603 4288522156
0.117893 0.10816 0.85151899 4288587691
0.109921 0.032996397 0.81390196 4294835709
0.114442 0.047044601 0.81375498 4291613398
0.109032 0.050803699 0.83209497 4293981433
0.10721701 0.053355597 0.835841 4294376189
0.110116 0.052792501 0.82654798 4292863982
0.104691 0.059409101 0.83883196 4294113789
0.15275 0.063266002 0.81251395 4290760146
0.118397 0.070413396 0.82161903 4285957776
0.135867 0.078109905 0.82994896 4287731629
0.099890195 0.079694502 0.84673202 4292600293
0.100565 0.080306396 0.84370399 4292403172
0.099525593 0.082374103 0.84575999 4292402914
0.099053301 0.087907501 0.84814101 4292533728
0.098191597 0.093237102 0.855021 4293257449
0.10006 0.092501998 0.85107398 4292467678
0.098290801 0.095494002 0.85551798 4293256935
0.099647902 0.094930902 0.85271698 4292599007
0.158373 0.099923201 0.837363 4288064683
0.100209 0.097764507 0.852521 4292007381
0.102127 0.097807601 0.84998697 4290889412
0.099093698 0.102029 0.85838896 4292730590
0.100584 0.101545 0.85472196 4292073173
0.097278997 0.104797 0.86397803 4288586092
0.101051 0.10422499 0.856094 4291810000
0.123142 0.119113 0.85867602 4290428602
0.13463901 0.0070414501 0.79153997 4284644258
0.13675 0.0085809398 0.789877 4280365927
0.13671699 0.0138651 0.79105103 4291613914
0.124093 0.021957099 0.80910498 4289509569
0.124306 0.027648 0.80597198 4293916926
0.112418 0.0343052 0.81107199 4293061617
0.113512 0.033271 0.80759901 4294244601
0.113291 0.037485197 0.80865997 4292271586
0.11604901 0.040355399 0.80844396 4291087567
0.114087 0.0440857 0.81086701 4291548119
0.139466 0.0599178 0.81394297 4290956241
0.10336 0.064429998 0.84216803 4294113017
0.11821701 0.064394094 0.819161 4290890446
0.10167401 0.067817904 0.84644896 4294507259
0.102338 0.068516403 0.84386104 4293652467
0.101251 0.0713377 0.84828901 4294244087
0.099337503 0.078838304 0.85163397 4293718255
0.099085294 0.082276098 0.85164899 4293191913
0.115809 0.032039601 0.81026298 4294901502
0.111137 0.048131499 0.82559997 4293258483
0.113996 0.051119599 0.81815195 4291876575
0.10817 0.055834599 0.83230698 4293456122
0.10461599 0.0666418 0.83544099 4292666348
0.115945 0.067143001 0.82133597 4291021517
0.099776998 0.076385297 0.84752303 4293257964
0.110809 0.032105099 0.81523901 4294638587
0.126362 0.036104999 0.80337298 4294441725
0.128141 0.035858799 0.80245697 4292666604
0.147082 0.042473499 0.80100799 4292404725
0.11298 0.050061598 0.81962401 4291679710
0.109013 0.053209402 0.833996 4293785083
0.111421 0.052252103 0.82198399 4292205796
0.10678 0.056073003 0.83615303 4293916412
0.113583 0.064584196 0.82360101 4291218897
0.13026899 0.065026499 0.81877804 4291153619
0.113667 0.066971004 0.82459497 4290824397
0.101554 0.0758911 0.84057301 4292600039
0.10151999 0.084929705 0.843422 4292073434
0.106746 0.088597901 0.84193796 4289771452
0.14470901 0.039533999 0.799793 4292141810
0.112718 0.0443247 0.81358898 4292206049
0.111033 0.056857798 0.82270896 4292271849
0.104875 0.0585756 0.83723199 4294376445
0.102585 0.0676561 0.84213901 4293390065
0.106965 0.066957101 0.830432 4292403432
0.101181 0.070531197 0.84563702 4294046965
0.108592 0.078978896 0.833444 4290626757
0.153358 0.101012 0.83897996 4289969605
0.122188 0.11253399 0.85399997 4290492607
0.13513499 0.11919 0.85660303 4291282888
0.13081101 0.010364899 0.79633099 4289511129
0.110886 0.027968399 0.81963098 4293324529
0.112238 0.029681999 0.816773 4293587701
0.113097 0.032400798 0.81267899 4293061357
0.123808 0.0356181 0.80555999 4294046711
0.144381 0.036936197 0.79856801 4292075762
0.142676 0.040162399 0.80038798 4291878380
0.113199 0.0467177 0.816881 4291679452
0.10956199 0.054882001 0.82579398 4292798190
0.108517 0.0581255 0.83118701 4293192693
0.109634 0.060731202 0.82644498 4292535276
0.107961 0.069524199 0.82976097 4292205536
0.112273 0.069269598 0.82429904 4290824396
0.098722197 0.082341403 0.84792399 4293191658
0.156076 0.084895104 0.82600802 4291087831
0.098553002 0.084942102 0.84733897 4292928741
0.101537 0.094236605 0.84816802 4291481037
0.13451301 0.0092540598 0.791408 4290300133
0.131549 0.0255056 0.79798198 4293258999
0.110471 0.051230598 0.83059496 4293652984
0.109327 0.053042702 0.82919395 4293652983
0.14765401 0.055760399 0.80929703 4291022294
0.15016 0.055319697 0.80835199 4290891737
0.107738 0.056098703 0.83354104 4293653240
0.14813401 0.057783101 0.80995399 4291087827
0.10629 0.059058998 0.836411 4293652983
0.108417 0.058474898 0.82821995 4292929521
0.14867701 0.060112201 0.81137401 4290956498
0.10404599 0.069826402 0.83475596 4292403432
0.149408 0.073433995 0.822622 4287731362
0.117699 0.083065204 0.83337301 4290363593
0.120538 0.083127402 0.83345699 4289181885
0.118789 0.085643597 0.833368 4291021773
0.156606 0.088323601 0.82845801 4291153369
0.119615 0.087930903 0.83675098 4291021771
0.13594501 0.0012462799 0.78622496 4278452994
0.128778 0.033450197 0.80161703 4292469484
0.112114 0.041799802 0.812033 4292731877
0.150433 0.0579863 0.809645 4290628821
0.109238 0.0583428 0.82466996 4292600556
0.106396 0.0723508 0.83259302 4292271587
0.099076301 0.079059698 0.84644598 4293323242
0.114846 0.113166 0.85553098 4290824647
0.129372 0.0220483 0.80005699 4293850621
0.139033 0.033537 0.798307 4292206830
0.14125101 0.033586603 0.79733503 4292207088
0.12969701 0.040763501 0.80322301 4291811808
0.144935 0.0418377 0.80001801 4292207348
0.14748599 0.053599 0.807302 4290562769
0.109085 0.054092899 0.82748997 4293192435
0.10567401 0.0585186 0.84006095 4294376189
0.104309 0.068596706 0.83551705 4292863212
0.103943 0.073577903 0.83521301 4292337381
0.15294799 0.083548799 0.82656598 4291351003
0.098067299 0.084656797 0.85343903 4293651693
0.099218398 0.092980497 0.84923702 4292599263
0.098172404 0.097121298 0.85635197 4293256680
0.097633794 0.110473 0.86819702 4289836462
0.13383 0.0135947 0.79167295 4291087567
0.144991 0.031278599 0.796525 4292667897
0.110647 0.0352282 0.81259304 4294901502
0.14489999 0.045340698 0.80257601 4291089375
0.11417501 0.0487689 0.813824 4291613401
0.108752 0.055689 0.83060497 4293390329
0.150727 0.060139198 0.811203 4290826198
0.108381 0.0609142 0.82922602 4292666606
0.15163201 0.063624695 0.81332099 4290759634
0.10162 0.072834097 0.83974105 4292732139
0.15456501 0.0806005 0.823708 4291153622
0.109011 0.0852286 0.83811796 4290824135
0.100929 0.113603 0.86239398 4290361513
0.106477 0.116381 0.860614 4289967531
0.114713 0.0263435 0.81888896 4293521653
0.113464 0.0293846 0.81582201 4293259506
0.14165199 0.036766101 0.798033 4291878124
0.14680201 0.0600858 0.81338596 4291087571
0.14833799 0.063146897 0.81324297 4290824912
0.105134 0.064195096 0.83529103 4292863727
0.102311 0.070167199 0.84008503 4292995054
0.107591 0.0813509 0.835841 4290626500
0.113616 0.088107698 0.83919895 4290691776
0.13916299 0.108136 0.84509003 4285105792
0.129274 0.110835 0.84955502 4289374632
0.139576 0.00918236 0.79036701 4278652979
0.14268801 0.034930803 0.79820299 4292338418
0.14405599 0.033812303 0.79667699 4292404724
0.12557499 0.0405114 0.80543703 4291416537
0.124642 0.042708699 0.80642998 4291088084
0.12798201 0.042135801 0.80504304 4291877342
0.14672799 0.048598599 0.80449796 4291023326
0.100054 0.091106907 0.84788001 4292204505
0.124244 0.038189601 0.80520695 4292008159
0.13170199 0.036855701 0.79980797 4291943140
0.12245201 0.043194901 0.80627501 4291350742
0.114274 0.051433798 0.81456798 4291942623
0.113954 0.052915402 0.81981999 4292008416
0.12757 0.059398398 0.81701398 4290890447
0.099569701 0.084813304 0.84505796 4292468447
0.131466 0.095492102 0.83718801 4288128424
0.148285 0.0508775 0.805053 4291286753
0.139359 0.062473703 0.81510496 4290955725
0.115289 0.0700147 0.82558799 4291152589
0.102709 0.101931 0.85220301 4290889671
0.158032 0.123015 0.85544896 4290692292
0.13789 0.0010150101 0.78268903 4278847499
0.13660499 0.0036084899 0.78694499 4278255877
0.13479801 0.0225656 0.79426396 4292272875
0.140018 0.025755899 0.795008 4292930549
0.111002 0.0546926 0.82034898 4292205799
0.104052 0.0619299 0.842125 4294376443
0.100745 0.075812794 0.84307897 4292929515
0.11250599 0.085017197 0.83712703 4290955467
0.10206401 0.100387 0.85165995 4291020742
0.12793699 0.0170935 0.80334699 4290693850
0.13377801 0.0392261 0.80025405 4291614431
0.115421 0.046272498 0.81277001 4291416020
0.114047 0.049157299 0.81830198 4291613403
0.143756 0.050464697 0.804573 4290890963
0.146396 0.050417598 0.80464 4290562772
0.14237601 0.0545188 0.807895 4290825426
0.144821 0.053906601 0.80692703 4291022036
0.112566 0.078957297 0.831361 4290758343
0.113395 0.081971601 0.83363098 4290758344
0.098327301 0.097093597 0.85278803 4292862433
0.14899899 0.12153 0.85383898 4290758341
0.147994 0.039584201 0.79985797 4292470774
0.149022 0.042738203 0.80208302 4292602103
0.147727 0.045492999 0.80312699 4292338932
0.106795 0.061178003 0.83328998 4293061105
