# .PCD v0.7 - Point Cloud Data file format
VERSION 0.7
FIELDS x y z rgba
SIZE 4 4 4 4
TYPE F F F U
COUNT 1 1 1 1
WIDTH 1087
HEIGHT 1
VIEWPOINT 0 0 0 1 0 0 0
POINTS 1087
DATA ascii
-0.15326801 -0.127665 0.82119596 4288261053
-0.15053301 -0.12928501 0.82116997 4287603634
-0.087331302 -0.12771299 0.80753601 4286747804
-0.15057699 -0.124879 0.82089001 4287668915
-0.14789599 -0.12652999 0.820822 4288194744
0.0133831 -0.12125701 0.78983599 4282211667
-0.153457 -0.12261 0.82093203 4285827475
-0.076729894 -0.120788 0.80785 4285628546
-0.074088305 -0.118007 0.808676 4286089360
-0.070879303 -0.118241 0.80822098 4286155147
0.0023906601 -0.115806 0.79223603 4287339939
-0.051204201 -0.115379 0.80154794 4282933069
-0.043553699 -0.113987 0.80091399 4284838265
-0.0658677 -0.112392 0.80921304 4286747287
-0.063432299 -0.112682 0.80813003 4287273376
-0.0655533 -0.107549 0.81351501 4288191907
0.0076730601 -0.0980848 0.80976897 4285167475
0.076797895 -0.205662 0.75387502 4287671735
0.0411015 -0.204797 0.76138204 4286286748
0.073701106 -0.203045 0.75151205 4285171847
0.052981898 -0.198884 0.75605905 4285432455
0.045954201 -0.160457 0.78755796 4283593072
0.045952499 -0.15794601 0.78835702 4286156692
-0.056533299 -0.15008299 0.81110102 4289841877
-0.059249803 -0.147213 0.80943799 4290564576
0.0269334 -0.14156599 0.788899 4289707983
0.048087001 -0.13950901 0.78778899 4289183694
0.0520841 -0.13858201 0.78917605 4288657605
0.050112501 -0.13642101 0.78966999 4289972442
-0.075679101 -0.12980299 0.80695599 4289182154
-0.106292 -0.127538 0.809461 4283258444
-0.176366 -0.12801601 0.82535499 4287403684
-0.076696195 -0.124632 0.80722898 4287472301
0.00226104 -0.121449 0.79052401 4288393670
0.0074376897 -0.121204 0.789868 4285896367
-0.167299 -0.122806 0.82280797 4287142316
-0.16710001 -0.119852 0.82265103 4286748068
-0.076697201 -0.117779 0.80908501 4286615194
-0.027541202 -0.116083 0.79432201 4282275650
-0.0141482 -0.11512 0.79296505 4286155915
-0.0116243 -0.115218 0.792584 4286484636
0.063678801 -0.11630899 0.80232501 4283589725
-0.074040905 -0.115654 0.80910301 4288522938
-0.077676006 -0.113693 0.81317699 4286550172
0.0076047904 -0.110378 0.79435599 4285957255
-0.074611396 -0.11075 0.81394297 4285035380
0.0078178905 -0.108051 0.79595602 4285760899
0.0590472 -0.108623 0.80783397 4286219906
-0.024599701 -0.106225 0.80414301 4286613900
-0.0220013 -0.105984 0.80358303 4286613133
-0.0191753 -0.100157 0.80750799 4282340430
0.068544194 -0.20903999 0.75164896 4288262332
0.063062899 -0.205741 0.751836 4286092701
0.082051694 -0.19836199 0.75892401 4285827465
0.076049201 -0.19614901 0.75825202 4283197791
0.050159 -0.19354601 0.75931799 4283656291
0.068706706 -0.18926601 0.76129305 4285497213
0.047164902 -0.17854801 0.773516 4284774516
0.059346199 -0.17033701 0.77867496 4286287758
0.069457494 -0.17001499 0.78291899 4287340453
0.060436502 -0.165015 0.78174198 4286353554
0.0175872 -0.16136099 0.80195004 4291287779
0.000116354 -0.15109301 0.79614097 4290959333
-0.0894683 -0.14861999 0.821257 4291878119
-0.087043099 -0.148912 0.822047 4292272107
-0.084209196 -0.14854801 0.81910604 4292074729
-0.089684099 -0.13968201 0.81346697 4290892257
-0.080809504 -0.133039 0.80785602 4289314762
-0.0309496 -0.128051 0.79294503 4288786885
-0.0338379 -0.1221 0.79488099 4287405738
-0.030647401 -0.115926 0.79526097 4285365377
-0.117974 -0.118844 0.816585 4286879394
-0.0065897396 -0.114267 0.79503602 4287733924
-0.00572833 -0.11302301 0.79386497 4286944148
-0.071981102 -0.108055 0.81216401 4287928985
-0.069491304 -0.108171 0.81305104 4287665047
-0.0075669498 -0.102794 0.80609101 4286942606
-0.0166535 -0.100645 0.80733299 4283457112
-0.0039216499 -0.100991 0.80838096 4287074964
-0.0120765 -0.0979205 0.80936104 4285427822
0.062338501 -0.21997599 0.74921805 4286225059
0.055654097 -0.21796499 0.749731 4286487462
0.0480504 -0.21646 0.75109899 4288130742
0.081241399 -0.213829 0.75444704 4285959057
0.091269597 -0.212502 0.75988096 4288459454
0.098386198 -0.207725 0.76241702 4287540147
0.078764901 -0.198843 0.75756598 4285499278
0.078794599 -0.19553 0.75921601 4284182379
0.041869301 -0.175621 0.780204 4293520621
0.043726299 -0.176064 0.77860999 4289377461
0.070582099 -0.17149 0.78111899 4287273891
0.065277703 -0.168314 0.78195399 4287077540
0.068151399 -0.167705 0.783571 4287735215
0.071839698 -0.163874 0.785909 4287998387
0.067751698 -0.161328 0.786035 4287340714
-0.020650499 -0.159504 0.80747104 4291416796
-0.015802201 -0.14810801 0.79741496 4290499295
-0.0131603 -0.14800501 0.79706204 4290696420
0.066611201 -0.14438801 0.78995204 4287602856
-0.111302 -0.147953 0.81281298 4290103514
-0.0100541 -0.14456899 0.79474497 4287803835
-0.0077466997 -0.14464101 0.79435104 4289118933
-0.0054712701 -0.14122501 0.79297197 4288723142
0.054570999 -0.140138 0.78835702 4289051849
-0.0028953599 -0.137897 0.792795 4291353324
-0.000337629 -0.13814901 0.79144001 4291156458
-0.108353 -0.13890199 0.80751002 4287471787
-0.103459 -0.138846 0.80826396 4287671227
-0.030139601 -0.13613901 0.792566 4289971923
-0.022241501 -0.135791 0.791134 4282672747
0.00231006 -0.13481599 0.79080904 4288461763
-0.132834 -0.137325 0.80820501 4283655533
-0.029983699 -0.133315 0.791587 4285830307
-0.0597848 -0.13229699 0.80278099 4290168531
-0.12974 -0.13237399 0.81434995 4282601558
0.054490898 -0.128215 0.79264504 4288392630
-0.12667701 -0.128921 0.81662202 4283390568
-0.032992002 -0.125534 0.79441202 4284644981
-0.029962799 -0.125835 0.79230905 4288458174
-0.13043 -0.12823801 0.81970203 4285300356
-0.0305911 -0.121978 0.79356402 4286550414
-0.027281798 -0.122179 0.79186499 4287471279
-0.0135366 -0.120591 0.79156405 4279909674
-0.16638801 -0.125157 0.822667 4286485410
-0.12991001 -0.124745 0.81921399 4285038207
-0.046325598 -0.121112 0.79685104 4286552221
-0.022351 -0.119325 0.79211402 4286945441
-0.018793199 -0.119929 0.79108399 4287273127
-0.016893499 -0.119822 0.79193902 4285432722
-0.169366 -0.122832 0.82337499 4287076522
-0.13231 -0.121615 0.81872898 4286023055
-0.161948 -0.11965699 0.82210797 4286945450
-0.149937 -0.11949 0.82006097 4285892754
-0.132329 -0.119096 0.81848603 4287865777
0.0286553 -0.11376999 0.79173601 4286090897
-0.13239799 -0.116547 0.81872499 4286813607
-0.082256101 -0.109274 0.814861 4289245096
0.0295799 -0.106403 0.800089 4286021491
0.0279139 -0.0989215 0.80809802 4285694344
0.018957701 -0.097198702 0.809744 4285626996
0.14808999 -0.2035 0.77493399 4287670706
0.048652697 -0.16113901 0.78618401 4285695631
0.0197838 -0.15927699 0.79986 4290104785
-0.023094499 -0.159345 0.80766702 4290890706
-0.020608401 -0.15812899 0.80494797 4291877608
-0.018134501 -0.15840401 0.805197 4291681252
-0.0153952 -0.15787801 0.803859 4292469226
-0.012880499 -0.15804401 0.80359697 4292667891
0.071532801 -0.154799 0.79017103 4287538096
0.035950299 -0.154017 0.793244 4290103510
0.0483394 -0.15236099 0.78788203 4287144618
0.068009302 -0.150879 0.78837097 4288656059
0.0718036 -0.15232401 0.79075801 4288196533
0.053391602 -0.14505 0.78637296 4288261559
0.074423298 -0.144207 0.793612 4285630087
-0.10990001 -0.147919 0.81487703 4289775062
-0.097083703 -0.148412 0.81920099 4290957276
-0.087842599 -0.14963201 0.822321 4292468455
0.0513811 -0.14098901 0.78905702 4288788682
-0.142744 -0.14436501 0.806454 4285429876
-0.095695399 -0.14613901 0.81935996 4291023839
-0.0170405 -0.140613 0.79229796 4283991437
-0.140588 -0.141679 0.805731 4281875004
-0.12936701 -0.141196 0.80654997 4285301123
-0.00605657 -0.138089 0.79209602 4291287788
-0.13467701 -0.138933 0.80665696 4283653985
-0.12679 -0.139092 0.80695695 4285234052
-0.0089501692 -0.13550399 0.790784 4290959076
-0.10338201 -0.136825 0.809811 4287537581
-0.0627755 -0.13124299 0.80417603 4289116877
-0.060263 -0.13194299 0.801009 4288985529
-0.147514 -0.13219 0.82194597 4286090649
-0.062642604 -0.128861 0.80341101 4287933623
-0.050082803 -0.127812 0.79858601 4289511887
-0.0171718 -0.126142 0.78973496 4287144369
-0.047712103 -0.125239 0.79780102 4288261053
-0.080099404 -0.121654 0.80954999 4286154896
-0.031150701 -0.118158 0.79481202 4286287253
-0.0197754 -0.117632 0.792059 4287142562
-0.14813699 -0.121951 0.81973702 4285169541
-0.081831805 -0.11871801 0.80943102 4286417818
-0.084180601 -0.115321 0.81177199 4286681500
-0.167474 -0.116746 0.82237905 4285628806
-0.109479 -0.111405 0.81715 4287731346
-0.10713501 -0.11229 0.81616402 4285692793
-0.10453299 -0.112386 0.81615102 4285429365
-0.099305801 -0.112648 0.81510901 4285100657
0.040886 -0.106982 0.80310899 4286350982
-0.0339384 -0.103342 0.80903304 4282405194
0.0053863102 -0.099668197 0.808061 4287206292
-0.0109137 -0.096269399 0.81260699 4288125844
0.046254002 -0.19444299 0.76120901 4285563272
0.0457155 -0.192485 0.76513499 4286089871
0.043334901 -0.188541 0.77150202 4288589747
0.062126402 -0.17428501 0.77567202 4284313966
0.059490301 -0.171058 0.776003 4286419091
0.0772973 -0.154477 0.79364097 4288393658
-0.14332001 -0.147305 0.80736703 4289376442
-0.140984 -0.147479 0.80766702 4290628317
-0.100333 -0.14871299 0.81944501 4290563036
-0.14080401 -0.14489199 0.80763 4288522415
-0.041151199 -0.14288901 0.79946601 4290368480
-0.048886903 -0.138979 0.79949999 4291616491
-0.0437706 -0.13962801 0.79797697 4291222762
-0.043396998 -0.137151 0.79696995 4291419629
-0.039971501 -0.139578 0.79789102 4291616239
-0.12414 -0.139125 0.80722898 4285629062
-0.114678 -0.139116 0.80925798 4287340976
-0.048756301 -0.136383 0.79828304 4290959336
-0.0460242 -0.136678 0.79768902 4291024874
-0.038056899 -0.135561 0.79615504 4290564325
-0.12512299 -0.13626601 0.80684304 4284179551
-0.083673596 -0.13653101 0.80888599 4291615463
-0.114451 -0.133919 0.810588 4285694597
-0.093207605 -0.13281599 0.80711299 4289247947
-0.051327299 -0.13039799 0.79791099 4289380044
0.061643198 -0.127363 0.79281002 4286682520
-0.15340401 -0.13301401 0.82289398 4287534502
-0.025085399 -0.12700801 0.79076302 4288588996
0.033812802 -0.12410299 0.78792799 4287866028
0.055913799 -0.12503999 0.79178101 4288129716
0.059771899 -0.12523 0.79382205 4287602084
-0.117791 -0.12836599 0.81158298 4283257685
-0.114631 -0.12846601 0.81105298 4283061072
-0.0145414 -0.124027 0.78986198 4280169758
0.029038299 -0.12303299 0.78806502 4285367426
-0.117303 -0.12656601 0.81320399 4283719008
-0.016008601 -0.122394 0.79162198 4281092411
-0.114856 -0.123707 0.81518 4285694093
-0.14566299 -0.122201 0.81993699 4286089361
-0.118024 -0.121926 0.817213 4287339177
-0.0188333 -0.115255 0.79379404 4286353810
-0.022260001 -0.113888 0.79501396 4285956484
-0.14362299 -0.116093 0.81987202 4285498519
-0.140396 -0.116492 0.81898296 4285563538
-0.168293 -0.114522 0.82354105 4285366404
-0.057390999 -0.108565 0.80891198 4284574825
-0.0277465 -0.1053 0.80661601 4287207073
-0.00311703 -0.10267299 0.80627799 4286876300
0.074288197 -0.19795901 0.75620502 4285301904
0.063661598 -0.190501 0.75801897 4285300096
0.054917399 -0.18069799 0.77047801 4285629832
0.036366902 -0.163599 0.79879099 4291155421
-0.040150002 -0.15568201 0.81191403 4292667894
-0.054610901 -0.150095 0.81103498 4290432991
-0.043167599 -0.14947501 0.80539501 4292274161
-0.033582099 -0.14514799 0.799079 4291813867
-0.0165243 -0.143782 0.79438502 4290368236
-0.124479 -0.14486 0.80814004 4288131009
-0.0758157 -0.14505 0.81269598 4291156971
-0.068458505 -0.14460801 0.81050503 4291222248
-0.0273719 -0.141735 0.79518104 4290105046
-0.074137397 -0.141974 0.81140602 4291813617
-0.030004699 -0.13844 0.79308301 4289513423
-0.121477 -0.13911301 0.80752003 4286878623
-0.080621697 -0.13938901 0.80978495 4291484908
-0.014523599 -0.13250799 0.791592 4289906389
-0.035282902 -0.13027699 0.792934 4287734954
-0.0115846 -0.12972501 0.792081 4289840340
-0.14267799 -0.13308701 0.82223296 4284776323
-0.0060265698 -0.127149 0.79095799 4289248971
-0.16738801 -0.128023 0.822689 4288524224
-0.097646497 -0.125578 0.808797 4283326810
-0.043834303 -0.122676 0.79565996 4287669169
-0.0034235301 -0.12121399 0.79179102 4288656317
-0.14527901 -0.12485199 0.820068 4287603891
-0.142792 -0.124854 0.81958199 4287209399
-0.097317196 -0.122836 0.81088597 4285299326
-0.00091417599 -0.118685 0.79093999 4286748570
-0.175565 -0.12434 0.82456797 4285432977
-0.158823 -0.122481 0.82130605 4285433233
-0.095841102 -0.120422 0.81181699 4287798963
-0.14584801 -0.11961 0.81973898 4286483867
-0.0984926 -0.118198 0.81343901 4287602862
-0.078945801 -0.116839 0.80977005 4288259513
-0.13167399 -0.113405 0.819076 4284839293
-0.084232695 -0.11083999 0.81411499 4286417041
-0.059772998 -0.10845 0.80913204 4284640618
-0.028821301 -0.107882 0.80251396 4286021507
-0.018794701 -0.106107 0.80161297 4286349954
0.041182801 -0.101271 0.80653495 4286087807
0.053370301 -0.21923399 0.749044 4287473842
0.049019199 -0.20013499 0.757514 4284314735
0.13978 -0.204907 0.77292603 4288263358
0.053686198 -0.19745101 0.75705498 4286024081
0.042879201 -0.186455 0.771635 4290232516
0.0529425 -0.18066001 0.77026898 4285761161
0.056658499 -0.18046801 0.76944596 4285826954
0.059730399 -0.18058501 0.76897198 4286221453
0.0607347 -0.17795101 0.76988596 4286286990
0.042985197 -0.17798899 0.78140503 4291087050
0.059941702 -0.17545 0.77223295 4286090128
0.0590275 -0.173391 0.776308 4286220942
0.0696119 -0.173456 0.77927601 4286352527
0.059128799 -0.16022199 0.78391898 4286814367
-0.0098523702 -0.157887 0.80254304 4291025121
0.038003702 -0.15082699 0.79218102 4289183176
-0.0453583 -0.15098199 0.80708098 4291878895
-0.042194501 -0.150682 0.80459601 4292602870
0.027196199 -0.144006 0.79044199 4287344307
0.0214864 -0.142629 0.79148 4289313740
-0.100611 -0.145532 0.81686199 4290431966
0.0131573 -0.13914999 0.789307 4290630113
0.0077801798 -0.13625599 0.791453 4290039511
-0.092728898 -0.13618201 0.80943203 4288855755
-0.00089905603 -0.13257299 0.79105002 4290432477
-0.095325597 -0.133028 0.80752802 4288590521
-0.106176 -0.130799 0.80744499 4286417034
-0.089561597 -0.12980001 0.80639398 4287079599
-0.087112799 -0.12930499 0.80649203 4287603629
-0.035525903 -0.12781401 0.79330605 4286221192
-0.0147 -0.126941 0.78972697 4286486943
0.025943801 -0.12573999 0.78589898 4288394950
0.028978299 -0.12540101 0.78771996 4286487448
-0.089271002 -0.126729 0.80724299 4285499784
-0.0541526 -0.124762 0.799909 4286814888
-0.062762 -0.123463 0.80396301 4287998649
-0.139553 -0.12539801 0.81983799 4286486180
-0.142791 -0.122276 0.81934601 4285368458
-0.065485604 -0.118795 0.80459398 4285300861
-0.065564401 -0.11616001 0.80803901 4285892749
-0.165657 -0.114769 0.82295299 4285234312
-0.15128 -0.11415 0.82033801 4282998103
-0.143049 -0.114072 0.81886297 4282800222
-0.066043995 -0.110402 0.81089896 4285100915
-0.0169842 -0.10891 0.80007201 4285955190
0.0134834 -0.100162 0.806907 4287074449
0.074594595 -0.21103701 0.74968702 4285828240
0.112082 -0.20708001 0.76822901 4289513169
0.069298603 -0.199 0.75467294 4286288022
0.049172502 -0.197927 0.75772196 4283721060
0.0441605 -0.19609 0.76086605 4286154896
0.0570211 -0.193371 0.75944799 4284576624
0.045769598 -0.17807899 0.77623403 4284314475
0.063533202 -0.174734 0.77633196 4283985511
0.068094298 -0.175211 0.77762502 4285826693
0.065651603 -0.172877 0.77826297 4285891975
0.070137396 -0.16856 0.78028303 4287602857
0.0434817 -0.159054 0.78935498 4286551971
0.0530844 -0.15809599 0.78446102 4286748571
0.070979796 -0.15844299 0.78802502 4287537835
0.053080801 -0.15581101 0.78541702 4286813591
0.0467094 -0.154789 0.79016 4287407285
0.045721002 -0.145512 0.787835 4289117640
0.040166698 -0.143454 0.78889602 4288921541
0.032089598 -0.14064001 0.78856701 4290236124
0.044851799 -0.14000399 0.787296 4289775574
0.061885398 -0.140448 0.78988099 4288327609
-0.092484705 -0.146778 0.82069397 4291286757
0.027104 -0.13791099 0.78820801 4289117901
-0.074003704 -0.135242 0.806306 4290564063
-0.065546699 -0.131853 0.80391496 4289182927
-0.057082102 -0.12917599 0.800116 4287341486
-0.091788501 -0.12789701 0.80698699 4286616990
-0.0117575 -0.123017 0.79021102 4284904042
0.0401995 -0.121565 0.79009598 4287471527
-0.115063 -0.12600499 0.81416398 4284246384
-0.170294 -0.124242 0.82353902 4286748324
-0.13726199 -0.11584 0.81952304 4284445301
-0.115422 -0.116336 0.81677401 4284840067
-0.00120297 -0.111585 0.79546601 4286615698
-0.030434201 -0.109924 0.80135304 4285758333
-0.055139899 -0.10565799 0.80954701 4284312188
0.0480363 -0.21432801 0.75083697 4287867316
0.047790002 -0.21046801 0.75174403 4287208873
0.050016601 -0.210879 0.75283802 4286617505
0.044750802 -0.210141 0.75357395 4286682530
0.046352901 -0.208198 0.75365996 4286551197
0.049778197 -0.20869701 0.753766 4286288526
0.044839501 -0.20631 0.75501096 4285696144
0.047141101 -0.20624299 0.753645 4286353816
0.13415299 -0.20126601 0.77283198 4284381047
0.050964002 -0.195355 0.75773001 4283787883
0.019121401 -0.16153599 0.80271995 4291615717
0.0292191 -0.162267 0.80161101 4291813354
-0.0258012 -0.157948 0.80805796 4291023326
-0.0067193196 -0.158675 0.80425799 4290762470
0.00213621 -0.15680601 0.79994899 4291418854
0.0045861299 -0.156515 0.79938203 4292931578
-0.0342643 -0.155889 0.80930001 4292668409
-0.011355099 -0.154569 0.800771 4292537078
0.047857899 -0.15132299 0.78913504 4288262332
-0.042344701 -0.152604 0.808608 4292668150
-0.0156059 -0.152687 0.80013204 4291880433
0.050879601 -0.147357 0.78737402 4287998902
-0.0183485 -0.148063 0.79774702 4290697191
-0.135372 -0.1497 0.808577 4289509834
-0.13293099 -0.149601 0.80890995 4289839057
-0.028890699 -0.14793 0.80045503 4292273908
0.059008598 -0.143374 0.78887904 4288393147
-0.093111701 -0.14702299 0.81893104 4291681256
-0.145377 -0.145097 0.80778801 4284772725
-0.112837 -0.14585499 0.81090897 4289840602
-0.040616501 -0.13921699 0.79683697 4291485423
0.054523602 -0.13796699 0.789478 4288853959
0.041790903 -0.135152 0.78714401 4285103992
-0.097462997 -0.13923 0.81143105 4289906392
-0.086164899 -0.13711999 0.80982101 4291484131
-0.088745795 -0.13538401 0.808649 4290233816
0.0612402 -0.12963901 0.79138398 4287471786
-0.0512667 -0.12659201 0.79744798 4289117130
0.064212702 -0.125099 0.79626799 4283919723
-0.178481 -0.12759 0.825041 4287075238
-0.101064 -0.121126 0.81254101 4288193975
-0.0026616699 -0.114251 0.79406703 4287734953
-0.00024544701 -0.114603 0.79403996 4287800496
-0.158445 -0.116886 0.82087296 4286551209
-0.107053 -0.11432701 0.816571 4285233533
-0.10282 -0.113884 0.81511998 4285167225
0.0242936 -0.0996591 0.80762404 4286944144
0.026152201 -0.099727899 0.80822903 4286812307
0.033045102 -0.099741206 0.80842102 4285562240
0.0018672 -0.097208001 0.81002003 4285232238
0.00450557 -0.097637802 0.80957705 4284838000
0.021315301 -0.097585902 0.80914098 4285430907
0.022157401 -0.098603107 0.807459 4286878097
0.057648201 -0.22293401 0.75027299 4289578965
0.061287299 -0.222909 0.74943 4288132545
0.0550984 -0.214311 0.74986297 4286289825
0.0531382 -0.212285 0.74947804 4285762965
0.0577222 -0.21245199 0.75003004 4286749091
0.090892002 -0.20988299 0.76014799 4287868083
0.084609494 -0.20640199 0.75660998 4286093214
0.084408998 -0.201433 0.75776303 4285171078
0.068120904 -0.181474 0.76930201 4284708217
0.013845299 -0.15290301 0.79575402 4292077558
0.021679198 -0.152798 0.79447699 4290106595
0.075733595 -0.151485 0.79378003 4288458169
0.0158072 -0.148452 0.79296994 4292405753
0.018495198 -0.149581 0.79374403 4292077301
0.076480597 -0.147994 0.79283601 4288524217
0.013285 -0.14739999 0.79303801 4291616751
0.023990899 -0.14691499 0.79221302 4289643738
0.042867601 -0.14525999 0.78841102 4289314765
-0.048274502 -0.14743601 0.80538201 4291550956
0.0294457 -0.14350301 0.79019397 4288788677
-0.13812 -0.14580701 0.806979 4289313479
-0.051814202 -0.14515199 0.80451399 4292142580
-0.000484141 -0.141505 0.79182899 4288127406
0.0076395203 -0.14177099 0.79250699 4285299301
-0.138464 -0.14312601 0.80612403 4286417550
-0.135524 -0.14374699 0.807096 4288457399
-0.011542 -0.138606 0.79110497 4288720312
-0.0088411598 -0.138826 0.79140002 4290036949
0.034522001 -0.13761 0.78699595 4289315278
0.045233 -0.137105 0.78711605 4291681519
0.047414999 -0.137364 0.78669298 4290630375
-0.0114662 -0.135957 0.79071701 4290827493
0.039829798 -0.13345 0.78507096 4284579962
0.045642201 -0.13498801 0.78844798 4290299085
0.0473244 -0.134166 0.78748697 4290693595
0.0492834 -0.134964 0.78752899 4290695394
-0.014136599 -0.132844 0.78998399 4290168790
0.041531503 -0.129427 0.78558898 4280302385
0.023029801 -0.126545 0.78591496 4289708495
0.025611099 -0.12686799 0.78768402 4289840603
0.045848202 -0.12705401 0.78893203 4285696133
-0.127721 -0.129968 0.81634897 4282930271
0.047750402 -0.12463 0.791978 4284577903
0.020609301 -0.121461 0.78901803 4286022791
0.0232575 -0.121656 0.789545 4287207840
0.020267598 -0.118956 0.78978497 4287734181
-0.073694602 -0.12025701 0.80612403 4286089100
-0.178974 -0.123123 0.82581198 4285826708
0.054091301 -0.112071 0.80185795 4286483599
-0.079508297 -0.108869 0.81390005 4288258980
-0.0221944 -0.102808 0.80591398 4286680208
-0.0058418498 -0.0972137 0.810651 4284244827
-0.00291537 -0.097169802 0.80982202 4284442462
-0.00035161001 -0.096831396 0.81050599 4285100395
0.0074994401 -0.097020298 0.80934602 4283654491
-0.0071753403 -0.0957627 0.80954599 4285693048
-0.00048319102 -0.095486097 0.809102 4284179798
0.052148901 -0.220246 0.74967605 4287670969
0.069978796 -0.185395 0.768242 4284839285
0.073449202 -0.18580399 0.76714206 4284839540
0.068365403 -0.18309501 0.76821697 4284576882
0.070665799 -0.18305099 0.76819801 4285168504
0.075286597 -0.158197 0.792153 4288064175
-0.0291765 -0.15632801 0.80620801 4290761697
-0.054468799 -0.15382801 0.81474203 4290431434
-0.037228402 -0.15244 0.80706203 4292405495
-0.032410599 -0.14818801 0.801211 4292471546
-0.026508301 -0.147871 0.799797 4292208116
-0.025214899 -0.144812 0.79711103 4292668152
-0.021292299 -0.144887 0.79641104 4292470774
-0.019541599 -0.14165601 0.79355198 4289907438
-0.121403 -0.142921 0.80708098 4288721857
-0.0140696 -0.13854201 0.79125798 4287076256
-0.124086 -0.14016201 0.80604202 4286352272
-0.121727 -0.14035299 0.806274 4287339694
-0.119273 -0.136997 0.80619097 4287076505
-0.0059410301 -0.132917 0.79040802 4290564060
0.045741402 -0.131688 0.78875405 4284181856
0.048696604 -0.131909 0.78991401 4286156442
-0.119502 -0.13428999 0.80792296 4285825150
-0.117388 -0.133945 0.80984199 4285628551
-0.0032813302 -0.12986 0.79085201 4289710039
0.00199458 -0.129647 0.79046899 4289381075
0.0048561604 -0.127111 0.790142 4288657092
-0.108599 -0.12960899 0.81108397 4284048213
-0.106425 -0.129179 0.81043798 4285429618
-0.0091943303 -0.124101 0.790299 4289510600
-0.115008 -0.126249 0.81214803 4283718754
0.017865999 -0.121392 0.78893101 4284116073
-0.122687 -0.124527 0.81649595 4285036154
-0.0119185 -0.11964 0.79032803 4281684032
-0.0090312297 -0.119807 0.79336298 4286088578
-0.14027001 -0.122482 0.81935602 4284973440
-0.13717799 -0.122102 0.81843597 4285301633
-0.0113914 -0.117304 0.79422599 4287469214
-0.142379 -0.119242 0.81881201 4286944159
-0.11263201 -0.11896 0.81600296 4287339949
-0.0088297008 -0.114245 0.794599 4287010460
0.020790199 -0.113582 0.79166901 4287208608
-0.14254899 -0.11660501 0.81827503 4286485157
-0.139495 -0.11736 0.82006204 4287077034
-0.11787 -0.116305 0.81660104 4284838784
-0.063352302 -0.11550801 0.80781096 4286681239
-0.01409 -0.111277 0.79587501 4285497211
-0.060894299 -0.111639 0.80877 4286878871
-0.15413499 -0.112738 0.820593 4284839297
0.024119301 -0.106205 0.79912704 4286415997
0.026806699 -0.106218 0.79948997 4285824114
0.0021263999 -0.101338 0.80541199 4286942093
-0.0053899698 -0.094379403 0.81158298 4288784558
0.0784887 -0.213907 0.74949998 4284645507
0.0434618 -0.213728 0.75495499 4286419867
0.071178898 -0.19972999 0.75522 4286288280
-0.081319898 -0.14907899 0.81793702 4292535019
0.021757299 -0.145568 0.79139102 4288066747
-0.140154 -0.14678 0.807585 4289380047
-0.126848 -0.144943 0.80703199 4287737277
0.073338203 -0.14035 0.79425299 4286681501
-0.116704 -0.137642 0.80706203 4287800753
-0.135049 -0.13485001 0.81003702 4285954430
-0.113544 -0.135102 0.807028 4286089612
-0.084298596 -0.132993 0.80705905 4289839825
-0.13672301 -0.13375701 0.821127 4284182132
0.052104697 -0.122373 0.79544204 4287076508
0.053027999 -0.122358 0.79320598 4287536806
-0.15868899 -0.127775 0.82212001 4287537581
-0.111659 -0.12523 0.81198496 4283916392
-0.108765 -0.12420201 0.81337702 4285297784
-0.106369 -0.125396 0.81300098 4283982175
-0.177076 -0.119824 0.82354498 4287536556
0.046239 -0.112066 0.80006802 4286614417
-0.060761999 -0.11344 0.80735701 4287798698
-0.0116893 -0.109475 0.79839897 4286153599
0.0550205 -0.10962 0.80308503 4287007883
0.0575407 -0.109517 0.80326301 4286811534
0.065120302 -0.22228101 0.749663 4288789440
0.083088696 -0.21093899 0.75575703 4288261560
0.0485631 -0.20792 0.75186497 4286748057
0.084282406 -0.208939 0.75666702 4288065728
0.046182998 -0.20353101 0.75520599 4286418839
0.0510424 -0.20346099 0.75304699 4284248695
0.096473396 -0.20030901 0.76430905 4286485919
0.081801601 -0.19657001 0.760445 4285432447
0.097594395 -0.198165 0.76387399 4285761166
0.094158098 -0.195861 0.76397198 4284577402
0.0705553 -0.15223399 0.78921598 4288064433
0.038092401 -0.15164199 0.79102802 4289314251
0.035062902 -0.14928301 0.79148698 4287670701
0.055529401 -0.147723 0.786623 4287407533
-0.0105061 -0.148 0.79693699 4291353321
0.0261849 -0.146523 0.79152399 4288460739
0.058901697 -0.145097 0.786479 4288196024
-0.0054801302 -0.14489301 0.79418498 4287476417
-0.00308148 -0.144317 0.79347098 4285307027
0.0048393998 -0.144036 0.792445 4282412912
0.024192199 -0.143512 0.79174101 4288986062
-0.140258 -0.14444201 0.80649298 4287667361
-0.078358799 -0.144979 0.81316304 4291617265
0.00211119 -0.141211 0.79185796 4289115589
0.0190304 -0.14050201 0.789442 4290300121
0.0050958502 -0.13857999 0.79064697 4290695396
0.0147082 -0.137115 0.78895503 4287605688
-0.086864501 -0.13995799 0.81244999 4291418602
0.0156621 -0.135021 0.78834003 4287409082
0.062501803 -0.134785 0.79214799 4287340966
-0.108427 -0.136483 0.807423 4286419606
-0.094975702 -0.136687 0.80936199 4289710038
0.033847 -0.131136 0.78434902 4287277768
0.023056699 -0.12880099 0.78579903 4288723401
0.033960998 -0.12861301 0.78423703 4285173663
0.0510947 -0.128975 0.79137099 4288129199
0.028148199 -0.12593199 0.78509402 4286619561
-0.14225599 -0.13104899 0.82077599 4285497997
-0.103489 -0.129133 0.810067 4286417545
-0.100446 -0.12794299 0.80775601 4286417555
-0.040735297 -0.1258 0.79477501 4287801269
0.034473799 -0.123489 0.78564698 4287932333
0.036276698 -0.124148 0.78729498 4286813340
-0.133885 -0.127638 0.81881297 4286023569
-0.122142 -0.126936 0.81499904 4282930259
-0.043866798 -0.12283 0.79650402 4288195511
-0.0011119699 -0.121645 0.79078805 4288919751
0.0018860101 -0.119128 0.79049104 4286224541
0.043542001 -0.11887001 0.79349595 4283263585
-0.0083268005 -0.116624 0.79327601 4287469469
-0.11026 -0.119111 0.81532705 4287800758
-0.095075503 -0.117733 0.81247902 4288128949
0.0464462 -0.114409 0.79822803 4286418061
-0.095338203 -0.11531 0.81372499 4287075746
-0.092946798 -0.11559 0.813003 4287668398
-0.139957 -0.114138 0.81863701 4282536527
0.048919998 -0.109055 0.802221 4287075986
0.051763501 -0.109353 0.80302399 4285628021
-0.112663 -0.111387 0.81777799 4288059540
-0.107136 -0.110354 0.81717199 4290164147
-0.104013 -0.110172 0.81669098 4289967280
-0.10150801 -0.110549 0.81609696 4288322969
-0.082580201 -0.109917 0.81315804 4286615443
-0.079140201 -0.109698 0.81214499 4284445290
-0.049713701 -0.109029 0.80783695 4286746254
-0.00069438398 -0.106893 0.79799598 4286416000
0.0133302 -0.10382801 0.80243295 4286611839
0.049228299 -0.104475 0.80491304 4285825909
0.018892501 -0.101888 0.80608398 4286613639
0.067424797 -0.218445 0.74771506 4288261815
0.042511903 -0.20231199 0.75995803 4285366667
0.071471103 -0.18573101 0.76762301 4284905335
0.00074930402 -0.16016701 0.80411798 4290499039
-0.042143904 -0.15494201 0.809515 4292799220
-0.024754299 -0.14852799 0.80014598 4292273910
-0.0209537 -0.14753799 0.79755604 4291945460
0.0047365697 -0.135573 0.79091603 4289315280
0.0092441998 -0.13575301 0.78911197 4289381328
-0.114001 -0.137035 0.80715901 4286090902
-0.114196 -0.13464999 0.80949801 4285826957
-0.110883 -0.13435601 0.80893403 4288126368
0.0182248 -0.12898301 0.786672 4284318594
-0.119288 -0.13080001 0.808815 4282600266
-0.089212306 -0.131327 0.80702901 4287276459
-0.084322304 -0.13116099 0.80636299 4288656575
-0.0813637 -0.13077201 0.80603099 4289051847
0.025696801 -0.124123 0.787889 4287670450
0.031072201 -0.123636 0.78616101 4286222478
-0.111906 -0.126086 0.81366402 4283981926
0.033824001 -0.12129699 0.789271 4287339683
0.036215801 -0.121082 0.78858697 4286616473
0.0400111 -0.118955 0.79178602 4287800230
-0.12883399 -0.12147599 0.81749201 4286285972
-0.056504399 -0.118782 0.80194896 4283855986
-0.120638 -0.119122 0.81707501 4286615200
0.0437598 -0.114628 0.79845101 4285825155
-0.076962799 -0.11005101 0.81293499 4285561729
0.00211971 -0.103679 0.80199498 4286218617
0.046177201 -0.104735 0.80395097 4287009938
0.062998399 -0.225877 0.75213999 4289578965
0.059019901 -0.216397 0.74719703 4285368979
0.14979601 -0.204576 0.77383399 4288262845
0.14552601 -0.20225799 0.77305001 4286224288
0.0539269 -0.159602 0.78550702 4286682779
0.058359198 -0.15577801 0.78479499 4285826951
-0.025980899 -0.151058 0.80168104 4292471029
-0.086903699 -0.14912601 0.82100797 4292140520
-0.080813304 -0.141773 0.811508 4291813104
-0.078317203 -0.141616 0.810624 4291813356
-0.074602999 -0.14312199 0.81024998 4291813615
-0.078060098 -0.13906699 0.80888397 4291616236
-0.135134 -0.137125 0.80791903 4283519574
-0.13235299 -0.134361 0.81137198 4284638062
-0.078880601 -0.129898 0.80575597 4289183184
-0.13405901 -0.121474 0.81816697 4285958031
0.051618401 -0.112135 0.80062503 4287273377
0.011148 -0.10157499 0.803909 4286679433
-0.0106911 -0.098332196 0.80821401 4285231463
0.066862501 -0.21624801 0.74885798 4287539377
0.072445802 -0.216474 0.74855298 4287342773
0.059503898 -0.206617 0.75148404 4287342255
0.106334 -0.20605299 0.76624703 4289315789
0.097993203 -0.200619 0.76437098 4286749350
0.042677399 -0.195269 0.763098 4286352532
-0.043536399 -0.145826 0.80236298 4291550957
-0.038470402 -0.145246 0.80050403 4290301912
-0.029922301 -0.141616 0.79551798 4291025131
-0.024821399 -0.14172301 0.79453003 4291090659
-0.0196549 -0.138331 0.79142296 4284517244
-0.017095599 -0.13841499 0.791067 4284119150
-0.142019 -0.135832 0.82023603 4282532421
-0.078602999 -0.132375 0.80595303 4289315024
-0.133147 -0.130307 0.81845504 4284246384
-0.16434599 -0.119432 0.82241303 4287208107
-0.055095002 -0.116351 0.80291498 4283590770
0.034775298 -0.113938 0.79337901 4287272870
0.037354302 -0.113234 0.79543298 4283656800
-0.0090515502 -0.10908999 0.79780698 4285298800
0.043127201 -0.108899 0.80124998 4286483085
0.0048229801 -0.10133599 0.80539799 4286744714
0.057107799 -0.217549 0.74719 4286619303
0.0595401 -0.21796401 0.74847806 4286552486
0.089460604 -0.208671 0.75828099 4286750633
0.0952667 -0.206294 0.762676 4286223767
0.095708504 -0.203722 0.76349801 4285631885
0.073116995 -0.19604899 0.75782597 4285433221
0.059676699 -0.193739 0.75850201 4282602833
0.068223603 -0.191707 0.76018202 4285366655
0.0414478 -0.18497901 0.77639902 4291876567
0.024268601 -0.15425199 0.79530001 4287410622
-0.0435571 -0.142022 0.79940802 4290696162
-0.15595199 -0.12752101 0.82173496 4287603891
-0.10953701 -0.120804 0.81435996 4287799471
-0.057078499 -0.116335 0.80276 4285300366
0.0396307 -0.113899 0.79509699 4283326031
0.045978501 -0.109517 0.80173099 4287142041
-0.074153394 -0.107688 0.81326705 4290363328
-0.040366501 -0.102818 0.80818295 4282010948
0.074815601 -0.215645 0.749874 4285501335
0.0691045 -0.214803 0.74939203 4286421156
0.071430996 -0.215002 0.749605 4285961116
0.094902799 -0.20817399 0.76151097 4287802549
0.106085 -0.198604 0.76524901 4283918699
0.069958702 -0.181374 0.76953602 4285431164
-0.044926997 -0.15479299 0.81113702 4292470253
-0.094291098 -0.148627 0.82124799 4291154399
0.075753897 -0.139926 0.795196 4286550169
-0.137059 -0.13897301 0.80617404 4281283890
-0.0338291 -0.137768 0.79470897 4290696164
-0.025004299 -0.13536701 0.79122806 4286751668
-0.021984199 -0.13284101 0.790389 4279579182
-0.0095938398 -0.13032401 0.78974599 4289971412
-0.15841499 -0.13301 0.82335901 4286876559
-0.00395313 -0.126871 0.78952003 4288854730
0.056554101 -0.214857 0.74786401 4283857276
0.059001997 -0.21229699 0.74754399 4285368976
0.042225398 -0.21134301 0.75569302 4285104774
0.049433 -0.21080001 0.75224 4287012525
0.056935601 -0.20547901 0.75084996 4287142816
0.136456 -0.204996 0.77138799 4288197051
0.092614196 -0.196005 0.76259398 4284840319
0.0554961 -0.192358 0.75789303 4285169018
0.0441163 -0.18535499 0.77273899 4288522923
0.0182587 -0.15313001 0.79500699 4291814130
0.060681198 -0.15059701 0.78655499 4288985538
0.0767444 -0.149783 0.79427099 4288656320
0.015944 -0.14447799 0.79131299 4288262851
0.041709401 -0.14310201 0.787925 4288921801
-0.073211797 -0.145317 0.81257802 4291879409
0.040759999 -0.13813099 0.78747302 4289247941
0.044120301 -0.13503399 0.78731799 4288785328
-0.111284 -0.13140899 0.80805701 4284706932
-0.156258 -0.13042 0.82190299 4287667881
-0.0732283 -0.123262 0.80494297 4287602855
-0.10932299 -0.118387 0.81444204 4286814374
-0.107071 -0.115675 0.81477803 4285563014
0.0512802 -0.107701 0.80400002 4285429871
-0.076654799 -0.107975 0.81370503 4290823622
0.051722597 -0.106328 0.80669099 4283786320
0.046186298 -0.103144 0.80601501 4286285705
-0.000468891 -0.097707301 0.80776203 4285166705
0.0621843 -0.22832601 0.75291604 4290565600
0.068943799 -0.22528301 0.75132596 4290302175
0.047047902 -0.22252099 0.75420099 4287409077
0.070300601 -0.21961701 0.74927002 4289446346
0.099587999 -0.20100701 0.76536399 4286289055
0.062270999 -0.172564 0.77699202 4285168509
0.044375502 -0.171013 0.78052801 4288786354
-0.069330402 -0.150856 0.81686801 4292074984
-0.000586899 -0.147524 0.79406899 4291944431
-0.075910397 -0.14897701 0.81718701 4292141290
-0.089801401 -0.14599201 0.82051599 4291089893
-0.0039267698 -0.141625 0.791538 4287078830
0.058437802 -0.139679 0.787453 4289248715
0.077856697 -0.138933 0.794357 4286090132
0.0123189 -0.135272 0.78864801 4288592324
0.0235065 -0.134867 0.78826398 4288064695
0.025914401 -0.13488699 0.78750503 4289248717
0.027778 -0.135205 0.78729403 4289052621
0.031152301 -0.13463201 0.78669596 4289380818
-0.13910699 -0.137008 0.81732601 4288190615
-0.00967573 -0.13287699 0.78995204 4290366426
0.0582234 -0.13205799 0.79148602 4287669425
0.069670498 -0.13194999 0.79318702 4284710269
-0.073417395 -0.13287801 0.80523497 4289709528
-0.014908301 -0.130209 0.78957599 4289709007
-0.15097 -0.131613 0.82095098 4287471536
-0.148433 -0.131465 0.82049596 4286813861
0.067373395 -0.127849 0.79525203 4284905600
-0.15833001 -0.12478501 0.82156503 4287011242
0.0171037 -0.118351 0.78979599 4287798947
0.070785202 -0.122016 0.80255997 4285694592
-0.162604 -0.121953 0.82215196 4286814636
-0.061394699 -0.118679 0.80268198 4287471020
0.064608805 -0.118075 0.80090004 4284708982
-0.084413998 -0.11168 0.81241602 4284706933
-0.081669599 -0.111789 0.81207502 4282932568
-0.0142963 -0.11020099 0.79861903 4286219395
-0.027654599 -0.10096399 0.80789602 4284179293
0.068027399 -0.22024201 0.748308 4288985797
0.0506889 -0.210463 0.74985904 4285369224
0.0412466 -0.210741 0.75921804 4287472302
0.065572001 -0.20530701 0.74965602 4286289562
0.116637 -0.203236 0.76978999 4287277494
0.12232801 -0.204895 0.76920801 4289249998
0.094322301 -0.198061 0.76422304 4285235590
0.096699305 -0.19855399 0.76552898 4286024848
0.146323 -0.200756 0.773974 4285433734
0.0528192 -0.184958 0.76720697 4285958282
0.055349201 -0.18516499 0.76733303 4285168255
0.050390702 -0.183046 0.76882601 4285893003
0.0630202 -0.180923 0.76800299 4285958026
-0.013736499 -0.160257 0.80563003 4291483618
0.0493563 -0.157355 0.78795695 4286353301
0.0072205099 -0.15055099 0.79484898 4291090918
0.0073873 -0.147953 0.79371601 4291222761
-0.141213 -0.147213 0.80697697 4290232530
0.0068715001 -0.145116 0.79272699 4283265657
0.065857299 -0.14208299 0.79004902 4285762961
-0.00188245 -0.13897799 0.790604 4290761696
-0.060458902 -0.13600701 0.80212599 4290630370
0.067268699 -0.11997899 0.80124497 4285958786
0.063609801 -0.113095 0.80513501 4285890685
-0.025893299 -0.108528 0.80135697 4285758325
0.0073008998 -0.10556 0.79822099 4286547841
0.0217022 -0.103686 0.805103 4286218876
0.035395902 -0.104081 0.80526298 4286613638
-0.013986 -0.100755 0.80700701 4285824899
0.0218965 -0.101051 0.80717701 4286942091
0.050039798 -0.22230099 0.75080502 4288658374
0.062253699 -0.22162399 0.74788302 4288263100
0.070434898 -0.220385 0.74832499 4289578191
0.0527156 -0.216979 0.74857599 4287736243
0.073766604 -0.217839 0.74935102 4288198086
0.0503796 -0.21533501 0.74930203 4288131772
0.073028393 -0.21283501 0.74820501 4285630864
0.072805904 -0.208683 0.75303602 4288722372
0.114246 -0.20764101 0.76723403 4289316050
0.12838601 -0.20653901 0.77119499 4288986826
0.11444 -0.202648 0.76785201 4287276719
0.143713 -0.204219 0.77212405 4287803322
0.147625 -0.2052 0.774086 4288460480
0.087213799 -0.19883099 0.75942296 4286156688
0.0442679 -0.161557 0.78729099 4282474838
0.020186501 -0.16175 0.80185497 4291615977
0.049097098 -0.15957001 0.78759998 4286287253
-0.017160701 -0.158749 0.80380201 4292207340
0.041339699 -0.154339 0.79037702 4289906127
0.0041720001 -0.15173599 0.79597801 4290762210
0.0078819403 -0.15368401 0.79648697 4291682286
-0.061484698 -0.15298 0.81584996 4293192689
0.041072801 -0.148747 0.78919798 4288854983
-0.0040378799 -0.14723599 0.79472899 4291682544
0.038138099 -0.14577201 0.78891701 4289380299
-0.023108101 -0.14354099 0.79528302 4292143093
-0.047243599 -0.142398 0.80089396 4291550961
-0.037006501 -0.142267 0.79794598 4291353838
-0.063614301 -0.140889 0.80573601 4291353838
-0.0525201 -0.138799 0.80065697 4291287270
-0.082960099 -0.13834 0.80966604 4291747822
-0.066018701 -0.13646699 0.80365002 4290630367
-0.061832801 -0.13822301 0.803307 4290498528
0.051489398 -0.135252 0.78759497 4289511630
-0.077243596 -0.13550501 0.80710399 4290826981
-0.044714 -0.13340899 0.79614598 4286028439
-0.148028 -0.133756 0.82217997 4287273638
-0.077126294 -0.13272999 0.80794299 4290037464
0.043301202 -0.1294 0.78681797 4282011478
0.040670298 -0.124235 0.78724402 4285563528
-0.082476094 -0.12446 0.80662704 4287601825
0.049578801 -0.12249 0.79417998 4284841593
-0.138391 -0.123827 0.81906301 4285499022
-0.0156646 -0.119709 0.79094398 4284052867
-0.143841 -0.120882 0.81912404 4286221462
-0.13559701 -0.12252101 0.81945801 4285498763
-0.13560601 -0.11827201 0.81828398 4287799725
-0.074785404 -0.113137 0.81071603 4286681240
-0.124582 -0.113454 0.81952 4281745998
-0.119236 -0.113573 0.81893599 4282864207
0.106332 -0.206965 0.76740098 4289381585
0.123626 -0.20813499 0.77042997 4289250255
0.131576 -0.205385 0.771137 4288591814
0.112252 -0.20187601 0.76761401 4285895320
0.141196 -0.20401199 0.77159196 4287803066
0.076901898 -0.19404401 0.75787598 4284182893
0.0700721 -0.17086701 0.78019297 4286814367
0.067198195 -0.168345 0.78062904 4287209382
0.064651899 -0.16592701 0.78037095 4285105286
0.067459196 -0.163149 0.78204399 4287011749
0.067498706 -0.16180901 0.78456599 4286945701
-0.0065017398 -0.159013 0.80214399 4290302422
-0.115668 -0.15051199 0.813214 4288851647
-0.113209 -0.150244 0.81306797 4289377475
-0.036045399 -0.148177 0.80196303 4292076787
0.038833901 -0.140108 0.78760797 4289512145
0.038454898 -0.13789101 0.787296 4287540392
0.043654099 -0.138118 0.78779101 4291550189
0.048262902 -0.13690199 0.788625 4290827241
-0.125155 -0.134067 0.80741102 4282733390
0.032276299 -0.132393 0.78508401 4289710047
0.040293097 -0.13197799 0.786259 4282736210
-0.13872799 -0.13324499 0.82174104 4284445309
-0.129375 -0.13241 0.81679201 4282732632
0.024234399 -0.12954 0.78718501 4289577939
0.043426897 -0.12686001 0.78728497 4286613402
-0.0105861 -0.122561 0.79128897 4287074951
0.0495403 -0.12000901 0.79586601 4287010203
-0.090812303 -0.115926 0.81397301 4288195000
-0.076610297 -0.115511 0.80938601 4288523707
-0.0723764 -0.113063 0.80961001 4286747289
-0.0070857201 -0.104421 0.80365598 4286415745
0.065686502 -0.226733 0.75249404 4290696670
0.052227199 -0.22307201 0.750494 4289118414
0.043610699 -0.22040199 0.75843501 4288459193
0.130935 -0.20701401 0.771285 4288985537
0.143078 -0.205632 0.77306598 4288789191
0.14523399 -0.205599 0.77412498 4288789445
0.14744501 -0.20582001 0.775379 4288789190
0.055530801 -0.18316701 0.76837599 4285629830
0.066496 -0.17716299 0.77588302 4284312944
-0.0112647 -0.15701601 0.80185604 4291946478
0.077906802 -0.15595199 0.794361 4288591292
-0.032678399 -0.150672 0.80250895 4291616751
-0.0161174 -0.150144 0.79844397 4290499039
0.0551387 -0.150013 0.78690898 4287275683
-0.069581397 -0.148623 0.81400001 4292208109
-0.063411601 -0.14933099 0.81258601 4291812840
-0.011724399 -0.144407 0.79413503 4287805897
-0.066376902 -0.144207 0.80923104 4291025385
-0.0144402 -0.14192399 0.79292601 4284453269
-0.037748698 -0.13930599 0.79606599 4291748079
-0.013882301 -0.13606301 0.79060304 4290892257
-0.122457 -0.13325101 0.80764598 4283193173
-0.142922 -0.133966 0.82185501 4284510068
-0.086402297 -0.12690499 0.80652696 4287141274
-0.0104047 -0.125102 0.78965098 4288655296
-0.092448197 -0.124049 0.81025898 4285562496
-0.0053174202 -0.122374 0.79139102 4289247946
-0.16021401 -0.116706 0.82215697 4285958553
-0.015973199 -0.1149 0.79371995 4286879644
-0.0613189 -0.110182 0.80856097 4285496188
0.048264999 -0.22367999 0.75459599 4288526279
0.053058401 -0.18289199 0.76843703 4286155660
0.068108499 -0.17052299 0.78117001 4287076768
0.064925902 -0.168009 0.78116196 4286091157
0.0424885 -0.16623101 0.78831202 4288786099
-0.0109588 -0.16017 0.80451298 4292141038
-0.00552251 -0.15987501 0.80277801 4290301656
0.010722999 -0.153763 0.79644799 4292077044
0.0130594 -0.150608 0.79421502 4292011249
-0.102179 -0.14966001 0.81909001 4291023070
-0.12344 -0.144015 0.80731601 4288721344
0.075430296 -0.132828 0.79641998 4286616214
-0.096923798 -0.129006 0.80733502 4287536296
-0.013515701 -0.12527201 0.79058194 4284446327
-0.0080699194 -0.12574099 0.78942102 4288985798
-0.10725901 -0.120677 0.81353199 4288194231
-0.15638699 -0.11606 0.82137001 4286024865
0.032435503 -0.112697 0.79174298 4287470241
0.050099097 -0.114915 0.79967201 4287340197
0.019117001 -0.110434 0.79340398 4286944153
0.0217383 -0.108541 0.795753 4285299575
-0.042809699 -0.103121 0.80835104 4282798935
-0.036766201 -0.103206 0.80874199 4282996301
-0.0120929 -0.101108 0.80684304 4286943633
-0.034276798 -0.101024 0.80862296 4283852139
0.0164076 -0.101184 0.805336 4286810505
0.033822801 -0.101729 0.80640101 4286745996
0.062897801 -0.2069 0.74932504 4288393403
0.080439903 -0.20694099 0.75499499 4288591554
0.058327097 -0.20163499 0.751912 4282867553
0.13596499 -0.20503199 0.77338499 4287999934
0.116963 -0.201594 0.77072304 4285500304
0.15909801 -0.20305499 0.77598101 4287340969
0.0583263 -0.177827 0.76993203 4285958027
0.0461285 -0.174834 0.77831203 4285498245
-0.0144006 -0.15470199 0.801799 4292866044
0.074919701 -0.15463699 0.79175895 4288196533
0.077166393 -0.15233901 0.79262704 4288327607
-0.131301 -0.14603199 0.80676001 4289840343
-0.108223 -0.148294 0.81425405 4289642961
-0.101017 -0.140341 0.80989599 4290037210
-0.100896 -0.13512699 0.80750299 4287800487
0.077940002 -0.136649 0.79536104 4286286995
0.026558399 -0.130597 0.78790599 4290564066
-0.083527699 -0.130519 0.80710697 4288458679
-0.045636699 -0.128323 0.79529601 4286224551
-0.091824301 -0.12681 0.80797303 4286222486
0.0325085 -0.12609801 0.78699499 4288129460
0.040273201 -0.12679699 0.787835 4281553485
0.037204299 -0.123474 0.78832 4286156169
0.0295792 -0.121273 0.78928101 4286748062
0.026402799 -0.118136 0.78865504 4287734184
-0.0158248 -0.112445 0.79458803 4286877842
0.014614 -0.11319 0.79049999 4287798951
0.039009999 -0.110732 0.798594 4284575337
0.0021536099 -0.098196201 0.80758399 4285561728
-0.0094063301 -0.096355006 0.80963701 4286152320
0.070015401 -0.205175 0.75124699 4286684837
0.055335499 -0.187426 0.76517701 4284312689
0.043229099 -0.17390199 0.78232098 4289377977
-0.000114911 -0.162339 0.80454302 4291154390
0.0039107199 -0.154102 0.79793298 4292274162
0.00255764 -0.15048599 0.795609 4291354348
0.074761398 -0.148114 0.79311502 4287735463
-0.122658 -0.13688099 0.80665004 4285234306
-0.024378 -0.13582201 0.791942 4285765023
0.026604999 -0.132658 0.78636104 4290169562
-0.039246701 -0.130504 0.79429197 4284647030
-0.039731301 -0.119856 0.79775798 4287866028
0.0382718 -0.120982 0.78827304 4286682267
0.040630799 -0.117516 0.79026002 4286615705
-0.089294605 -0.115092 0.81237704 4287208371
0.044675399 -0.116705 0.79557598 4284249202
0.060532797 -0.200913 0.750395 4282408535
0.13381101 -0.20610699 0.77176499 4288591553
0.066097505 -0.196814 0.75342 4285367170
0.0670074 -0.194104 0.75650299 4285498244
0.034294497 -0.15599801 0.79473996 4290234836
-0.0118872 -0.151547 0.798944 4290959331
-0.105477 -0.148837 0.81665701 4290496472
0.017291201 -0.137117 0.78853196 4287277498
-0.138253 -0.12800001 0.819673 4286813346
-0.0132454 -0.11279 0.79408097 4285102453
-0.059245799 -0.111268 0.80738598 4286681493
0.0137477 -0.108693 0.796134 4285496708
0.0111477 -0.105896 0.79821801 4284905327
0.016496001 -0.105844 0.79819202 4284904042
0.027301099 -0.103138 0.80370897 4286416257
0.077775098 -0.215744 0.75084001 4284777351
0.119763 -0.19965699 0.77093595 4284116329
0.044805899 -0.18989301 0.76511103 4286090128
-0.00346292 -0.15974699 0.80286902 4289906901
-0.129224 -0.14485401 0.80699998 4288458949
-0.030767201 -0.148875 0.80151802 4292536311
0.063525103 -0.145735 0.78733301 4288327866
0.069050297 -0.14617901 0.788297 4287209383
0.072347298 -0.1294 0.797445 4284182381
0.0240242 -0.112798 0.79076397 4286748829
0.024307599 -0.104422 0.80323398 4286350207
0.072379895 -0.22080499 0.75037402 4289184205
0.068346098 -0.21277401 0.74832302 4285435025
0.043629199 -0.16588001 0.78500199 4287273877
-0.023092899 -0.14781301 0.79888201 4292274167
-0.14128301 -0.136884 0.82118106 4284506985
-0.16646001 -0.129979 0.824305 4288062131
-0.0094646905 -0.12805401 0.78932601 4288722880
-0.043318499 -0.10089 0.81035197 4290559677
0.064541198 -0.223372 0.74991196 4288723649
0.060594101 -0.21471001 0.74677801 4285039743
0.078585699 -0.205047 0.75229496 4287934138
0.124935 -0.206227 0.76975 4289053395
0.071620598 -0.149949 0.78912002 4288064438
-0.000880924 -0.147321 0.79524297 4292077042
-0.136935 -0.14084801 0.80624199 4282994504
0.072164997 -0.142396 0.79066199 4285103494
-0.160895 -0.131852 0.82360899 4287403424
-0.023695 -0.12844099 0.789967 4286815670
0.00261687 -0.126531 0.788589 4288723146
-0.18088499 -0.123383 0.82521701 4287535528
-0.086298205 -0.12049501 0.809277 4285365379
0.021997102 -0.119279 0.78853697 4287536803
-0.042456299 -0.108562 0.80515003 4286680465
-0.059582699 -0.105748 0.80975503 4287403425
0.030618401 -0.107991 0.79740101 4285298280
0.036497798 -0.105353 0.80139899 4286416518
0.0392952 -0.103387 0.80453402 4286680717
0.048598997 -0.21837601 0.75055903 4288526531
0.045936901 -0.21604 0.75150704 4287209638
0.071833804 -0.19899899 0.75275898 4286419866
0.0429717 -0.19718499 0.76181 4285892750
0.0447581 -0.192981 0.76375699 4286353556
0.063722596 -0.17491999 0.772587 4284708211
0.066014998 -0.171 0.779401 4286681749
0.047740102 -0.157649 0.78643101 4286156432
0.050351299 -0.156148 0.78562099 4286616473
0.021313298 -0.154181 0.79523402 4291157736
0.049808603 -0.154292 0.788095 4286485655
-0.11724199 -0.146277 0.80933195 4291023592
0.032242101 -0.137758 0.78706598 4288723912
0.037866 -0.134555 0.78509098 4288854732
-0.053186599 -0.13083501 0.79916304 4288065470
0.042827301 -0.13158999 0.787902 4279776036
-0.099534497 -0.12515101 0.80950797 4283656298
-0.0121089 -0.12534501 0.789415 4287207593
0.032388303 -0.123758 0.78508401 4287077283
0.046131998 -0.125001 0.79042 4286814104
0.035264399 -0.12080999 0.78758699 4287010975
-0.072702698 -0.117357 0.80684 4286615191
0.059038799 -0.113625 0.80088395 4285760383
0.0021250402 -0.107944 0.79645801 4286613895
-0.052757498 -0.103622 0.81194204 4289113517
0.048541199 -0.104183 0.80717999 4286087805
0.062929295 -0.21973699 0.74871397 4286290848
0.065657996 -0.219677 0.74889803 4287078821
0.081643701 -0.199569 0.75751501 4286091154
