# .PCD v0.7 - Point Cloud Data file format
VERSION 0.7
FIELDS x y z rgba
SIZE 4 4 4 4
TYPE F F F U
COUNT 1 1 1 1
WIDTH 1208
HEIGHT 1
VIEWPOINT 0 0 0 1 0 0 0
POINTS 1208
DATA ascii
0.26047698 0.31099999 0.086999997 4282864216
0.26047698 0.31099999 0.087703198 4282864216
0.242291 0.30700001 0.090999998 4283654251
0.242291 0.30700001 0.091582999 4283654251
0.26100001 0.31125602 0.086999997 4283521631
0.243 0.30730599 0.090999998 4284179826
0.271965 0.31099999 0.086999997 4284179307
0.271965 0.31236401 0.086999997 4284179307
0.245 0.30817598 0.090999998 4284311926
0.273146 0.30899999 0.086999997 4286283911
0.273146 0.30928099 0.086999997 4286283911
0.27269602 0.29100001 0.071000002 4288850613
0.27335501 0.289 0.071000002 4290692563
0.27335501 0.290162 0.071000002 4290692563
0.273 0.29100001 0.071683697 4289179580
0.214239 0.29300001 0.094999999 4286874758
0.215 0.294341 0.094999999 4287402131
0.257 0.31740201 0.094999999 4284048744
0.21536399 0.29499999 0.094999999 4288190363
0.21536399 0.29499999 0.0954611 4288190363
0.259 0.31806698 0.094999999 4285561731
0.21699999 0.29686099 0.094999999 4288192162
0.26100001 0.318901 0.094999999 4286219662
0.257 0.31900001 0.096822701 4281943114
0.259 0.31900001 0.095984496 4285364865
0.257 0.30316699 0.081 4284509820
0.261136 0.31900001 0.094999999 4285430142
0.261136 0.31900001 0.095102206 4285430142
0.259 0.30410102 0.081 4284115064
0.271936 0.317 0.094999999 4286283394
0.271936 0.31881401 0.094999999 4286283394
0.27343702 0.301 0.081 4288652207
0.27086899 0.31900001 0.094999999 4283916652
0.27086899 0.32082102 0.094999999 4283916652
0.27328601 0.303 0.081 4286875793
0.27328601 0.30364099 0.081 4286875793
0.271 0.31900001 0.095330201 4284573036
0.235 0.30899999 0.096897006 4284310899
0.23843101 0.30899999 0.094999999 4284311667
0.23843101 0.30899999 0.095745303 4284311667
0.23899999 0.309282 0.094999999 4284311924
0.23899999 0.31099999 0.096933402 4284179569
0.241 0.31019801 0.094999999 4284640633
0.24268299 0.31099999 0.094999999 4284311409
0.24268299 0.31099999 0.095834196 4284311409
0.243 0.311167 0.094999999 4284575608
0.237 0.29300001 0.080583803 4279841859
0.245 0.31222603 0.094999999 4285035390
0.24018401 0.29300001 0.079000004 4279905593
0.24018401 0.29300001 0.079485103 4279905593
0.241 0.29345199 0.079000004 4281548367
0.243 0.29448199 0.079000004 4282206285
0.241 0.29499999 0.080291301 4281484626
0.24408501 0.29499999 0.079000004 4280368963
0.24408501 0.29499999 0.079444803 4280368963
0.245 0.29546797 0.079000004 4281812042
0.24699999 0.29654199 0.079000004 4283192418
0.233 0.29699999 0.086201601 4285561730
0.235227 0.29699999 0.085000001 4285758854
0.235227 0.29699999 0.085117102 4285758854
0.237 0.297993 0.085000001 4285299076
0.235 0.29899999 0.086835697 4285561214
0.23874499 0.29899999 0.085000001 4285167230
0.23874499 0.29899999 0.0858953 4285167230
0.23899999 0.299133 0.085000001 4284706680
0.241 0.300266 0.085000001 4284180335
0.255 0.29699999 0.086098097 4294112243
0.214366 0.289 0.093000002 4287598222
0.23637 0.289 0.077 4280298291
0.23637 0.289 0.0776954 4280298291
0.21463901 0.29100001 0.093000002 4287006341
0.237 0.289314 0.077 4278587156
0.215 0.291693 0.093000002 4287401102
0.21297501 0.30500001 0.107 4289112227
0.23899999 0.29032201 0.077 4280822833
0.213 0.30503699 0.107 4288716962
0.237 0.29100001 0.078607693 4278390042
0.215 0.30686498 0.107 4288454563
0.24067101 0.29100001 0.077 4278981921
0.24067101 0.29100001 0.077608898 4278981921
0.213 0.30700001 0.108798 4289703341
0.241 0.29114699 0.077 4282336848
0.243 0.29210502 0.077 4283521385
0.21519701 0.30700001 0.107 4287929245
0.21519701 0.30700001 0.107144 4287929245
0.25689498 0.289 0.077 4294967295
0.25689498 0.289 0.078414597 4294967295
0.21699999 0.308061 0.107 4286876562
0.212917 0.30899999 0.111 4289702311
0.213 0.30913597 0.111 4288520352
0.215 0.31058499 0.111 4288389024
0.215645 0.31099999 0.111 4287467927
0.215645 0.31099999 0.1115 4287467927
0.21699999 0.311919 0.111 4286810514
0.21280901 0.29699999 0.101 4287335047
0.213 0.29795802 0.101 4287401356
0.213204 0.29899999 0.101 4287730580
0.213204 0.29899999 0.101386 4287730580
0.22499999 0.29699999 0.101 4294967295
0.27407598 0.29699999 0.079000004 4290034372
0.27322102 0.29899999 0.079000004 4288521133
0.235 0.317 0.104862 4284375666
0.238997 0.317 0.103 4284245103
0.238997 0.317 0.104011 4284245103
0.23899999 0.31700101 0.103 4284245359
0.241 0.31804001 0.103 4284573811
0.243 0.31894901 0.103 4286349455
0.241 0.31900001 0.103963 4284639089
0.243118 0.31900001 0.103 4284837496
0.243118 0.31900001 0.103051 4284837496
0.257 0.315263 0.093000002 4284114032
0.245 0.319875 0.103 4285100923
0.259 0.31619799 0.093000002 4284311927
0.24699999 0.32091901 0.103 4284903544
0.26100001 0.31695199 0.093000002 4286152331
0.27271798 0.31299999 0.093000002 4287402132
0.272306 0.315 0.093000002 4286349444
0.273 0.31299999 0.094112195 4287270547
0.21203101 0.301 0.105 4288059797
0.213062 0.31299999 0.115 4287795855
0.213062 0.31299999 0.115065 4287795855
0.235 0.31299999 0.100833 4284048240
0.213 0.302701 0.105 4287927699
0.215 0.314527 0.115 4288059037
0.238573 0.31299999 0.098999999 4284179312
0.238573 0.31299999 0.099712901 4284179312
0.213177 0.303 0.105 4288388510
0.213177 0.303 0.105238 4288388510
0.213 0.315 0.116896 4287730060
0.23899999 0.31319198 0.098999999 4284179313
0.215 0.304934 0.105 4288323231
0.215626 0.315 0.115 4287271060
0.215626 0.315 0.115497 4287271060
0.23899999 0.315 0.10081501 4284047980
0.257 0.30743101 0.085000001 4285034615
0.21699999 0.31614098 0.115 4286745233
0.241 0.31428 0.098999999 4284442741
0.259 0.30816901 0.085000001 4285494912
0.242725 0.315 0.098999999 4284179568
0.242725 0.315 0.099772498 4284179568
0.27346301 0.30500001 0.085000001 4288323494
0.243 0.315099 0.098999999 4284180082
0.27308699 0.30700001 0.085000001 4286283654
0.27308699 0.30720401 0.085000001 4286283654
0.245 0.31613502 0.098999999 4284772217
0.257 0.29686999 0.075000003 4282798432
0.27366 0.29300001 0.075000003 4290231754
0.27322799 0.29499999 0.075000003 4289113017
0.27322799 0.295726 0.075000003 4289113017
0.212166 0.317 0.119 4288125317
0.212166 0.317 0.120201 4288125317
0.213 0.31890202 0.119 4286941551
0.213082 0.31900001 0.119 4287861635
0.213082 0.31900001 0.119039 4287861635
0.23481899 0.301 0.089000002 4284046948
0.23481899 0.301 0.090000004 4284046948
0.235 0.30111098 0.089000002 4284837234
0.237 0.30216199 0.089000002 4284903798
0.238535 0.303 0.089000002 4283916133
0.238535 0.303 0.089819901 4283916133
0.23899999 0.30328202 0.089000002 4284705908
0.241 0.304423 0.089000002 4284968827
0.255 0.301 0.090247594 4294967295
0.27418798 0.289 0.072999999 4290100421
0.27500001 0.289 0.074589603 4290889681
0.27357301 0.29100001 0.072999999 4290429647
0.274113 0.301 0.082999997 4289639099
0.27500001 0.301 0.084594704 4289704896
0.27357101 0.303 0.082999997 4288389804
0.257 0.311322 0.089000002 4282470744
0.259 0.31225899 0.089000002 4283127645
0.27296498 0.31099999 0.089000002 4286678152
0.27328399 0.30899999 0.089000002 4288060065
0.27328399 0.31082001 0.089000002 4288060065
0.27495301 0.29699999 0.081 4290297030
0.27500001 0.29699999 0.0810761 4290165445
0.27416399 0.29899999 0.081 4289968322
0.257 0.319143 0.097000003 4281417026
0.259 0.32008302 0.097000003 4285627008
0.26100001 0.32099798 0.097000003 4286284942
0.27191901 0.317 0.097000003 4287599253
0.27148598 0.31900001 0.097000003 4286086015
0.27148598 0.320039 0.097000003 4286086015
0.21344501 0.29300001 0.097000003 4287071880
0.21344501 0.29300001 0.098498799 4287071880
0.213888 0.29499999 0.097000003 4287071368
0.213888 0.29499999 0.0989516 4287071368
0.22435801 0.29300001 0.097000003 4294967295
0.21406101 0.289 0.094999999 4287466381
0.23496699 0.30500001 0.093000002 4282995811
0.23496699 0.30500001 0.093858704 4282995811
0.213801 0.29100001 0.094999999 4287334536
0.235 0.30501902 0.093000002 4282143321
0.22493699 0.289 0.094999999 4294967295
0.237 0.30626503 0.093000002 4282405722
0.238353 0.30700001 0.093000002 4283390565
0.238353 0.30700001 0.093755305 4283390565
0.23899999 0.307338 0.093000002 4282931554
0.241 0.30848902 0.093000002 4283982702
0.233 0.29300001 0.082590602 4284839297
0.25621 0.30500001 0.093000002 4283653212
0.25621 0.30500001 0.0944077 4283653212
0.23610899 0.29300001 0.081 4282996842
0.23610899 0.29300001 0.081488602 4282996842
0.237 0.29347602 0.081 4279842372
0.23899999 0.29467499 0.081 4280826437
0.237 0.29499999 0.082403503 4283195506
0.239638 0.29499999 0.081 4282469985
0.239638 0.29499999 0.081339799 4282469985
0.241 0.29585102 0.081 4281484367
0.243 0.29671702 0.081 4281287757
0.255 0.29300001 0.0824342 4294967295
0.23480201 0.30899999 0.097000003 4284048499
0.23480201 0.30899999 0.097795501 4284048499
0.235 0.30909801 0.097000003 4284376692
0.21202001 0.30899999 0.113 4288716953
0.237 0.310186 0.097000003 4284969082
0.213 0.31073499 0.113 4288388765
0.238866 0.31099999 0.097000003 4284179568
0.238866 0.31099999 0.097885102 4284179568
0.21327099 0.31099999 0.113 4288256920
0.21327099 0.31099999 0.11329 4288256920
0.23899999 0.311064 0.097000003 4284245620
0.215 0.31247699 0.113 4288125084
0.241 0.312224 0.097000003 4284574839
0.221 0.30899999 0.114904 4294309622
0.25299999 0.30899999 0.098533504 4289309867
0.224186 0.30899999 0.113 4290295994
0.224186 0.30899999 0.11337 4290295994
0.211914 0.30500001 0.109 4289112221
0.27495599 0.29300001 0.077 4290560716
0.212873 0.30700001 0.109 4289308837
0.27500001 0.29300001 0.077139102 4290494922
0.213 0.30717498 0.109 4288257177
0.27217099 0.315 0.094999999 4287336339
0.211952 0.29699999 0.103 4287599502
0.27402601 0.29499999 0.077 4290165704
0.215 0.308586 0.109 4288454307
0.27319601 0.31299999 0.094999999 4289046447
0.27319601 0.31339401 0.094999999 4289046447
0.21228999 0.29899999 0.103 4287665036
0.27405098 0.30500001 0.086999997 4289375929
0.27326301 0.30700001 0.086999997 4287928992
0.229 0.29699999 0.088273197 4285494910
0.211365 0.301 0.107 4288519833
0.275204 0.301 0.085000001 4289968063
0.275204 0.30134898 0.085000001 4289968063
0.211943 0.303 0.107 4288782747
0.231711 0.29699999 0.086999997 4285430143
0.231711 0.29699999 0.087390602 4285430143
0.27406299 0.303 0.085000001 4289376181
0.23100001 0.29899999 0.088980004 4285099378
0.27500001 0.303 0.086665004 4288586924
0.233 0.29794401 0.086999997 4285693316
0.234696 0.29899999 0.086999997 4285363323
0.234696 0.29899999 0.087888606 4285363323
0.235 0.299155 0.086999997 4285363579
0.23100001 0.289 0.079980999 4284969858
0.237 0.30013901 0.086999997 4285298304
0.23300199 0.289 0.079000004 4283522663
0.23300199 0.289 0.079001099 4283522663
0.249 0.29699999 0.088289298 4294243828
0.235 0.29032201 0.079000004 4283128670
0.25099999 0.29699999 0.087835506 4294967295
0.233 0.29100001 0.080740094 4283785839
0.253362 0.29699999 0.086999997 4294967295
0.253362 0.29699999 0.087231696 4294967295
0.236231 0.29100001 0.079000004 4281418574
0.236231 0.29100001 0.079627499 4281418574
0.255 0.29780802 0.086999997 4294967295
0.237 0.29143798 0.079000004 4278389527
0.255 0.29899999 0.088149399 4294967295
0.23899999 0.292487 0.079000004 4279442722
0.25437599 0.289 0.079000004 4292533728
0.25437599 0.289 0.080640703 4292533728
0.21186399 0.31299999 0.117 4287269496
0.21186399 0.31299999 0.118977 4287269496
0.21291499 0.315 0.117 4287860606
0.255 0.2895 0.079000004 4291283663
0.255 0.2895 0.079541102 4291283663
0.213 0.31518799 0.117 4287204475
0.255 0.29100001 0.0807584 4294967295
0.23100001 0.317 0.106974 4284706430
0.257 0.289 0.076902904 4294967295
0.23473801 0.317 0.105 4284441719
0.23473801 0.317 0.106083 4284441719
0.259 0.289 0.075601995 4294967295
0.235 0.317128 0.105 4284310389
0.26100001 0.289 0.075024098 4294967295
0.237 0.31787398 0.105 4284245362
0.26300001 0.289 0.075603798 4294967295
0.23899999 0.318988 0.105 4285099898
0.27515501 0.289 0.075000003 4290758608
0.27515501 0.28965703 0.075000003 4290758608
0.237 0.31900001 0.106072 4284505705
0.274571 0.29100001 0.075000003 4290692814
0.23902 0.31900001 0.105 4284441964
0.23902 0.31900001 0.105012 4284441964
0.27500001 0.29100001 0.075853303 4290692045
0.241 0.31994602 0.105 4284574072
0.243 0.32085001 0.105 4285953664
0.25299999 0.317 0.106021 4294967295
0.210207 0.317 0.121 4289703076
0.255 0.317 0.105294 4294967295
0.259 0.29699999 0.0848464 4294967295
0.26100001 0.29699999 0.084217101 4294243830
0.26300001 0.29699999 0.083461598 4293783280
0.26499999 0.29699999 0.083417393 4294967295
0.276072 0.29699999 0.082999997 4290231749
0.276072 0.298888 0.082999997 4290231749
0.27493399 0.29899999 0.082999997 4290165187
0.27500001 0.29899999 0.083101697 4290165186
0.27289897 0.31099999 0.090999998 4287665046
0.27245 0.317 0.098999999 4288191391
0.27389699 0.30899999 0.090999998 4289178290
0.27389699 0.31080601 0.090999998 4289178290
0.27163801 0.31900001 0.098999999 4287533973
0.273 0.31099999 0.091419898 4287402390
0.273 0.317 0.100024 4288454049
0.23469901 0.31299999 0.101 4283982962
0.23469901 0.31299999 0.101947 4283982962
0.235 0.31317002 0.101 4284114289
0.237 0.314293 0.101 4284376692
0.214527 0.289 0.097000003 4287731090
0.235 0.315 0.10282 4284113263
0.215 0.289 0.098467499 4288191387
0.238582 0.315 0.101 4284113775
0.238582 0.315 0.101723 4284113775
0.21330599 0.29100001 0.097000003 4287466379
0.23899999 0.31516799 0.101 4284179055
0.22492999 0.289 0.097000003 4294967295
0.241 0.31608599 0.101 4284376437
0.223867 0.29100001 0.097000003 4294967295
0.25099999 0.31299999 0.102892 4294967295
0.25299999 0.31299999 0.102869 4294967295
0.255 0.31299999 0.101957 4294967295
0.229 0.301 0.0922428 4282208079
0.231406 0.301 0.090999998 4283127129
0.231406 0.301 0.091216907 4283127129
0.233 0.302046 0.090999998 4284310630
0.235 0.30290303 0.090999998 4285428858
0.233 0.303 0.091917098 4282404946
0.23515899 0.303 0.090999998 4283192666
0.23515899 0.303 0.091099605 4283192666
0.237 0.304178 0.090999998 4284179562
0.25099999 0.301 0.091729596 4293454314
0.25335401 0.301 0.090999998 4293783793
0.25335401 0.301 0.091237098 4293783793
0.255 0.301891 0.090999998 4291152330
0.25299999 0.303 0.0923113 4283981405
0.255 0.303 0.091830105 4283521373
0.211867 0.29699999 0.105 4288322458
0.211614 0.29899999 0.105 4287928209
0.21286599 0.29300001 0.098999999 4287861648
0.212979 0.29499999 0.098999999 4287861130
0.213 0.29508099 0.098999999 4287203207
0.22362199 0.29300001 0.098999999 4294967295
0.22362199 0.29300001 0.099621899 4294967295
0.27489701 0.30500001 0.089000002 4289704889
0.22436799 0.29499999 0.098999999 4294967295
0.22436799 0.29499999 0.100359 4294967295
0.27500001 0.30500001 0.0892452 4289704633
0.21115801 0.301 0.109 4289111968
0.274073 0.30700001 0.089000002 4289244088
0.211349 0.303 0.109 4288848796
0.27279401 0.315 0.097000003 4288454307
0.27384001 0.31299999 0.097000003 4289243822
0.27384001 0.314565 0.097000003 4289243822
0.273 0.315 0.097523302 4288454822
0.259 0.29300001 0.0800393 4294967295
0.26100001 0.29300001 0.079622597 4294967295
0.26300001 0.29300001 0.079384401 4294375158
0.26499999 0.29300001 0.079828598 4294375415
0.27553099 0.29300001 0.079000004 4290560456
0.27553099 0.294595 0.079000004 4290560456
0.27487299 0.29499999 0.079000004 4290494408
0.27500001 0.29499999 0.079296306 4290363079
0.21129601 0.30500001 0.111 4288782490
0.211951 0.30700001 0.111 4288914590
0.259 0.301 0.087739699 4293914605
0.26100001 0.301 0.087972097 4290493884
0.26300001 0.301 0.0878812 4291349451
0.26499999 0.301 0.087710299 4294967295
0.27603298 0.301 0.086999997 4289967805
0.27519101 0.303 0.086999997 4289836219
0.27519101 0.30332801 0.086999997 4289836219
0.229 0.30500001 0.096133299 4284508793
0.23119201 0.30500001 0.094999999 4283653738
0.23119201 0.30500001 0.095106304 4283653738
0.233 0.30619699 0.094999999 4282996068
0.235 0.30700001 0.094999999 4284773246
0.233 0.30700001 0.095814005 4284114291
0.23500101 0.30700001 0.094999999 4284113775
0.23500101 0.30700001 0.095000394 4284113775
0.237 0.30827099 0.094999999 4283982190
0.24699999 0.30500001 0.096703902 4292335834
0.249 0.30500001 0.095803596 4283915873
0.25414801 0.30500001 0.094999999 4285166194
0.25414801 0.30500001 0.095334701 4285166194
0.229 0.29300001 0.084707499 4286022027
0.255 0.30560502 0.094999999 4293125349
0.23233099 0.29300001 0.082999997 4285561735
0.23233099 0.29300001 0.083726197 4285561735
0.25602898 0.30700001 0.094999999 4284179556
0.25602898 0.30700001 0.096843801 4284179556
0.233 0.29343399 0.082999997 4284904320
0.235 0.29460502 0.082999997 4283720306
0.233 0.29499999 0.0844604 4285561475
0.23582099 0.29499999 0.082999997 4284772735
0.23582099 0.29499999 0.083392099 4284772735
0.211437 0.30899999 0.115 4287926658
0.237 0.29562101 0.082999997 4282867056
0.212119 0.31099999 0.115 4287730047
0.25099999 0.29300001 0.084936701 4294967295
0.213 0.31292897 0.115 4288059539
0.27208599 0.31900001 0.101 4288453792
0.256448 0.29300001 0.082999997 4291349713
0.256448 0.293625 0.082999997 4291349713
0.256448 0.293625 0.083698899 4291349713
0.220906 0.30899999 0.115 4294440951
0.210988 0.31299999 0.119 4289570464
0.27336401 0.317 0.101 4289309357
0.27336401 0.31768 0.101 4289309357
0.255 0.29499999 0.084455296 4294178036
0.221 0.30914003 0.115 4294967295
0.211 0.313052 0.119 4287007092
0.221 0.31099999 0.116427 4292402139
0.211491 0.315 0.119 4287532663
0.211491 0.315 0.119684 4287532663
0.223464 0.31099999 0.115 4289311664
0.223464 0.31099999 0.115235 4289311664
0.229 0.30899999 0.100228 4284378234
0.231213 0.30899999 0.098999999 4284311671
0.231213 0.30899999 0.099132299 4284311671
0.233 0.31017801 0.098999999 4284442997
0.235 0.31099901 0.098999999 4285561990
0.233 0.31099999 0.100086 4284113776
0.23500301 0.31099999 0.098999999 4284048497
0.23500301 0.31099999 0.099001102 4284048497
0.237 0.31220901 0.098999999 4284508275
0.245 0.30899999 0.100931 4294572795
0.249 0.30899999 0.099862196 4294967295
0.251203 0.30899999 0.098999999 4294967295
0.251203 0.30899999 0.099129401 4294967295
0.25374299 0.30899999 0.098999999 4289309867
0.25374299 0.30944499 0.098999999 4289309867
0.255 0.31099999 0.099970497 4294967295
0.212652 0.29699999 0.107 4289045921
0.213 0.29699999 0.107931 4288783263
0.211246 0.29899999 0.107 4288651162
0.212216 0.301 0.111 4289045663
0.21133299 0.303 0.111 4288914075
0.25881499 0.29699999 0.085000001 4294967295
0.25881499 0.29699999 0.086320102 4294967295
0.259 0.29711199 0.085000001 4294967295
0.26100001 0.297681 0.085000001 4292928487
0.26100001 0.297681 0.085463502 4292928487
0.26300001 0.29865301 0.085000001 4292928228
0.259 0.29899999 0.086485602 4294967295
0.257 0.28909799 0.077 4294967295
0.26100001 0.29899999 0.086526997 4294967295
0.259 0.29027 0.077 4294967295
0.26300001 0.29899999 0.085284695 4293914865
0.26468199 0.289 0.077 4294967295
0.26468199 0.29056799 0.077 4294967295
0.26633802 0.29699999 0.085000001 4294967295
0.26633802 0.29852399 0.085000001 4294967295
0.259 0.29100001 0.077675201 4294967295
0.26499999 0.29899999 0.085498102 4293783280
0.26100001 0.29100001 0.077472501 4294967295
0.27670902 0.29699999 0.085000001 4290363078
0.26300001 0.29100001 0.0773682 4294967295
0.27700001 0.29699999 0.085862197 4290297285
0.26499999 0.289 0.077248298 4294967295
0.276079 0.29899999 0.085000001 4290231235
0.26499999 0.29100001 0.078049004 4294967295
0.275902 0.289 0.077 4290955470
0.27546901 0.29100001 0.077 4290626506
0.27546901 0.29284799 0.077 4290626506
0.27474099 0.30899999 0.093000002 4289441203
0.27500001 0.30899999 0.093475096 4289309874
0.27337199 0.31099999 0.093000002 4289177776
0.27337199 0.312179 0.093000002 4289177776
0.21517 0.289 0.098999999 4288454304
0.21517 0.28925601 0.098999999 4288454304
0.213799 0.29100001 0.098999999 4287861905
0.213799 0.292689 0.098999999 4287861905
0.22379601 0.29100001 0.098999999 4294967295
0.227 0.289 0.082150802 4286087562
0.22905099 0.289 0.081 4286022284
0.22905099 0.289 0.081021897 4286022284
0.23100001 0.290126 0.081 4285298307
0.229 0.29100001 0.082942002 4286284430
0.232455 0.29100001 0.081 4285166979
0.232455 0.29100001 0.081762902 4285166979
0.233 0.291302 0.081 4284115829
0.235 0.29249999 0.081 4283457384
0.249 0.289 0.082693607 4294967295
0.25270101 0.289 0.081 4294967295
0.25099999 0.29100001 0.0829615 4294046708
0.254738 0.29100001 0.081 4294967295
0.22499999 0.29699999 0.0906763 4284770929
0.255 0.29121 0.081 4291283663
0.22770301 0.29699999 0.089000002 4285428602
0.22770301 0.29699999 0.089374803 4285428602
0.257 0.30500001 0.092379801 4290494655
0.259 0.30500001 0.092249997 4292072916
0.229 0.29779002 0.089000002 4285561214
0.26100001 0.30500001 0.091551401 4291151814
0.230966 0.29899999 0.089000002 4284441447
0.230966 0.29899999 0.090121806 4284441447
0.23100001 0.299018 0.089000002 4285099894
0.26300001 0.30500001 0.092119202 4289374886
0.233 0.30002302 0.089000002 4285560701
0.26499999 0.30500001 0.091716401 4291546315
0.247825 0.29699999 0.089000002 4293125863
0.247825 0.29699999 0.089376405 4293125863
0.27573901 0.30500001 0.090999998 4289704888
0.27573901 0.30655399 0.090999998 4289704888
0.27479801 0.30700001 0.090999998 4289507765
0.25099999 0.29851002 0.089000002 4292994792
0.27500001 0.30700001 0.0914836 4289506997
0.25299999 0.29853001 0.089000002 4292994792
0.249 0.29899999 0.090681396 4293059812
0.25099999 0.29899999 0.089450799 4294967295
0.25364301 0.29899999 0.089000002 4294967295
0.25364301 0.29899999 0.090176396 4294967295
0.255 0.29985002 0.089000002 4294967295
0.26100001 0.31299999 0.100011 4294967295
0.23096001 0.317 0.107 4284838527
0.23096001 0.317 0.108448 4284838527
0.26300001 0.31299999 0.100068 4294967295
0.23100001 0.317027 0.107 4284508794
0.27477399 0.31299999 0.098999999 4289441713
0.233 0.31781399 0.107 4284508280
0.27500001 0.31299999 0.100012 4289440943
0.235 0.318928 0.107 4286480775
0.27363101 0.315 0.098999999 4289309357
0.27363101 0.31613699 0.098999999 4289309357
0.233 0.31900001 0.108163 4284903038
0.21136701 0.30500001 0.113 4288453010
0.235138 0.31900001 0.107 4284703346
0.235138 0.31900001 0.107071 4284703346
0.211317 0.30700001 0.113 4288453266
0.237 0.31988102 0.107 4284638063
0.23899999 0.32066101 0.107 4285164922
0.24699999 0.317 0.108898 4294967295
0.249 0.317 0.107788 4294967295
0.251297 0.317 0.107 4294967295
0.251297 0.317 0.107147 4294967295
0.25299999 0.31794 0.107 4294967295
0.25299999 0.31900001 0.107672 4294967295
0.255216 0.31900001 0.107 4294967295
0.255216 0.31900001 0.107037 4294967295
0.229 0.31299999 0.104446 4284508023
0.231328 0.31299999 0.103 4284311159
0.231328 0.31299999 0.10318 4284311159
0.23100001 0.315 0.104933 4284376697
0.233 0.31407401 0.103 4284376950
0.23467101 0.315 0.103 4283982450
0.23467101 0.315 0.10390799 4283982450
0.21298 0.29300001 0.101 4289309094
0.235 0.31516102 0.103 4284179315
0.213 0.29300001 0.101032 4287795855
0.237 0.316163 0.103 4284311154
0.21244501 0.29499999 0.101 4287796365
0.24699999 0.31299999 0.104207 4294967295
0.22190601 0.29300001 0.101 4294967295
0.25068501 0.31299999 0.103 4294967295
0.25068501 0.31299999 0.103236 4294967295
0.222405 0.29499999 0.101 4294967295
0.25099999 0.31310698 0.103 4294967295
0.223 0.29580802 0.101 4294967295
0.25299999 0.31314999 0.103 4294967295
0.255 0.31406698 0.103 4294967295
0.25099999 0.315 0.104559 4294967295
0.25299999 0.315 0.10366 4294967295
0.255 0.315 0.103498 4294967295
0.22499999 0.301 0.094788104 4282078822
0.22769099 0.301 0.093000002 4281616978
0.22769099 0.301 0.093413904 4281616978
0.229 0.30176401 0.093000002 4282667345
0.23100001 0.30298799 0.093000002 4283587168
0.25821701 0.29300001 0.081 4293125351
0.229 0.303 0.094224803 4282078303
0.259 0.293816 0.081 4294967295
0.259 0.293816 0.081866696 4294967295
0.231024 0.303 0.093000002 4281355091
0.231024 0.303 0.093011297 4281355091
0.26100001 0.29413 0.081 4294967295
0.233 0.30411401 0.093000002 4282733398
0.259 0.29499999 0.082847297 4294967295
0.25755 0.301 0.089000002 4292994019
0.25755 0.301 0.0897016 4292994019
0.212789 0.301 0.113 4288979615
0.245 0.301 0.093874604 4290427841
0.26100001 0.29499999 0.0817196 4293783280
0.259 0.302275 0.089000002 4292532949
0.212247 0.303 0.113 4288716444
0.24699999 0.303 0.093962699 4288192161
0.26300001 0.29499999 0.081370205 4294967295
0.26300001 0.30189002 0.089000002 4289637292
0.25099999 0.30178699 0.093000002 4291349455
0.26593602 0.29300001 0.081 4294967295
0.26593602 0.29433098 0.081 4294967295
0.259 0.303 0.0897258 4294967295
0.249 0.303 0.0944499 4283784547
0.26499999 0.29499999 0.081491202 4294375158
0.26100001 0.303 0.089657098 4289374886
0.25211 0.303 0.093000002 4285296494
0.25211 0.303 0.0943617 4285296494
0.27645001 0.29300001 0.081 4290692558
0.25299999 0.303698 0.093000002 4293454314
0.26613399 0.301 0.089000002 4294967295
0.26613399 0.30257002 0.089000002 4294967295
0.27584201 0.29499999 0.081 4290363334
0.27584201 0.29688001 0.081 4290363334
0.259 0.317 0.104529 4294967295
0.255 0.304272 0.093000002 4294967295
0.26499999 0.303 0.089352205 4292730589
0.26100001 0.317 0.103758 4294967295
0.276797 0.301 0.089000002 4290297025
0.26300001 0.317 0.104344 4294967295
0.27700001 0.301 0.089521199 4290165951
0.272854 0.31900001 0.103 4289309357
0.27579799 0.303 0.089000002 4289902010
0.27579799 0.30476001 0.089000002 4289902010
0.27383199 0.317 0.103 4289506478
0.27383199 0.31874999 0.103 4289506478
0.273 0.31900001 0.103533 4289243563
0.210133 0.31299999 0.121 4289308063
0.210024 0.315 0.121 4289505440
0.210024 0.315 0.122365 4289505440
0.21338999 0.29699999 0.109 4289309608
0.21338999 0.29797798 0.109 4289309608
0.21253501 0.29899999 0.109 4289046175
0.213 0.29899999 0.110858 4289177764
0.21552001 0.289 0.101 4288585890
0.21552001 0.29020998 0.101 4288585890
0.21450101 0.29100001 0.101 4287992984
0.21450101 0.29297501 0.101 4287992984
0.22499999 0.30500001 0.098617993 4285693835
0.227384 0.30500001 0.097000003 4284904836
0.227384 0.30500001 0.0971874 4284904836
0.21210201 0.30500001 0.115 4288058248
0.229 0.30592 0.097000003 4284706687
0.211289 0.30700001 0.115 4287662977
0.23100001 0.306997 0.097000003 4286284939
0.211209 0.30899999 0.117 4286743405
0.229 0.30700001 0.098088093 4284706171
0.211464 0.31099999 0.117 4286546543
0.231005 0.30700001 0.097000003 4284377462
0.231005 0.30700001 0.0970027 4284377462
0.21991001 0.30899999 0.117 4294506744
0.233 0.30815202 0.097000003 4284311670
0.22047099 0.31099999 0.117 4293717484
0.243 0.30500001 0.098125197 4294507259
0.221 0.31160599 0.117 4289573042
0.24668801 0.30500001 0.097000003 4292731880
0.223 0.31237298 0.117 4294967295
0.259 0.30899999 0.095990404 4289244334
0.24699999 0.30535299 0.097000003 4288915885
0.24699999 0.30535299 0.098322302 4288915885
0.26100001 0.30899999 0.096694097 4294967295
0.245 0.30700001 0.098970801 4294441465
0.26300001 0.30899999 0.096698098 4291151814
0.249 0.30700001 0.098311201 4291875027
0.26499999 0.30899999 0.096235394 4294967295
0.25099999 0.30700001 0.0971843 4288980901
0.27563399 0.30899999 0.094999999 4289507250
0.27563399 0.31001502 0.094999999 4289507250
0.25465801 0.30700001 0.097000003 4293256933
0.27426299 0.31099999 0.094999999 4289309617
0.255 0.307111 0.097000003 4293718001
0.27500001 0.31099999 0.096828297 4289309360
0.22499999 0.30899999 0.10272 4285561734
0.22775 0.30899999 0.101 4285232513
0.22775 0.30899999 0.101411 4285232513
0.22499999 0.29300001 0.086957805 4286021511
0.229 0.30966499 0.101 4285100671
0.228449 0.29300001 0.085000001 4285955976
0.228449 0.29300001 0.085779294 4285955976
0.23100001 0.31080899 0.101 4286284172
0.229 0.29330802 0.085000001 4285890183
0.229 0.31099999 0.102375 4284639866
0.23100001 0.294415 0.085000001 4285430663
0.231465 0.31099999 0.101 4284114549
0.231465 0.31099999 0.101227 4284114549
0.229 0.29499999 0.086577304 4285890182
0.233 0.31191701 0.101 4284179827
0.232039 0.29499999 0.085000001 4285561475
0.232039 0.29499999 0.085538596 4285561475
0.244894 0.30899999 0.101 4289572790
0.257 0.290728 0.079000004 4294967295
0.233 0.295614 0.085000001 4285561735
0.245515 0.30899999 0.101 4293848815
0.245515 0.30907401 0.101 4293848815
0.25747502 0.29100001 0.079000004 4294967295
0.25747502 0.29100001 0.079955302 4294967295
0.235 0.29686499 0.085000001 4284904835
0.247252 0.30899999 0.101 4294375674
0.259 0.292225 0.079000004 4294967295
0.24699999 0.29300001 0.086327404 4294967295
0.24699999 0.31099999 0.101668 4294967295
0.26100001 0.29258898 0.079000004 4294967295
0.25089601 0.29300001 0.085000001 4294967295
0.25089601 0.29300001 0.085551396 4294967295
0.249 0.31037799 0.101 4294967295
0.249 0.31037799 0.101689 4294967295
0.26300001 0.29258803 0.079000004 4294111987
0.25099999 0.29499999 0.086209506 4294967295
0.25099999 0.31020901 0.101 4294967295
0.26578602 0.29100001 0.079000004 4294967295
0.26578602 0.29208601 0.079000004 4294967295
0.25397798 0.29499999 0.085000001 4294967295
0.25397798 0.29499999 0.085436702 4294967295
0.249 0.31099999 0.101311 4294967295
0.27658898 0.289 0.079000004 4291087316
0.25099999 0.31099999 0.10127 4294967295
0.27700001 0.289 0.080328204 4291087315
0.25310001 0.31099999 0.101 4283717975
0.25310001 0.31099999 0.101043 4283717975
0.27624699 0.29100001 0.079000004 4290889679
0.212926 0.301 0.115 4289834153
0.213 0.301 0.115756 4289111199
0.212712 0.303 0.115 4289175707
0.257 0.29774302 0.086999997 4294967295
0.257 0.29774302 0.087273099 4294967295
0.25818899 0.29899999 0.086999997 4292532949
0.25818899 0.29899999 0.087836199 4292532949
0.26100001 0.29930398 0.086999997 4294967295
0.26100001 0.29930398 0.088296995 4294967295
0.26639599 0.29899999 0.086999997 4294967295
0.26639599 0.30047899 0.086999997 4294967295
0.257 0.30560502 0.093000002 4283521373
0.26699999 0.29899999 0.0875699 4294967295
0.259 0.30570599 0.093000002 4284902256
0.277345 0.29699999 0.086999997 4290560455
0.277345 0.29833701 0.086999997 4290560455
0.26100001 0.30633301 0.093000002 4292336346
0.27679402 0.29899999 0.086999997 4290297026
0.257 0.30700001 0.094243303 4289441967
0.27700001 0.29899999 0.087757006 4290297026
0.259 0.30700001 0.093810603 4284705899
0.26100001 0.30700001 0.0948053 4291151814
0.26300001 0.30700001 0.0936049 4289704369
0.26699999 0.30500001 0.094969302 4289637292
0.276557 0.30500001 0.093000002 4290033851
0.27700001 0.30500001 0.094756 4290033338
0.27561599 0.30700001 0.093000002 4289573301
0.27561599 0.30844 0.093000002 4289573301
0.22518201 0.289 0.082999997 4285824647
0.22518201 0.289 0.083083898 4285824647
0.227 0.28992 0.082999997 4286547859
0.22888 0.29100001 0.082999997 4286087306
0.22888 0.29100001 0.083821803 4286087306
0.229 0.29106501 0.082999997 4286021771
0.23100001 0.29220098 0.082999997 4285430405
0.25093099 0.29100001 0.082999997 4294967295
0.25093099 0.29100001 0.084849901 4294967295
0.22499999 0.29738101 0.090999998 4285034357
0.20819901 0.315 0.123 4290427312
0.227 0.29876199 0.090999998 4285626236
0.20955701 0.31299999 0.123 4289637282
0.20955701 0.313867 0.123 4289637282
0.22499999 0.29899999 0.092586897 4282996059
0.22741801 0.29899999 0.090999998 4283521625
0.22741801 0.29899999 0.091231205 4283521625
0.229 0.299817 0.090999998 4284704876
0.23100001 0.300762 0.090999998 4285625979
0.257 0.31299999 0.101299 4294967295
0.23899999 0.29699999 0.092953496 4294967295
0.25992897 0.31299999 0.101 4294967295
0.25992897 0.31299999 0.101454 4294967295
0.241 0.29699999 0.091667198 4294967295
0.26100001 0.31397399 0.101 4294967295
0.243 0.29899999 0.092765704 4294112244
0.26431501 0.31299999 0.101 4294967295
0.26431501 0.31420901 0.101 4294967295
0.245 0.29899999 0.092934899 4294967295
0.21408799 0.29300001 0.103 4288059802
0.21408799 0.29416698 0.103 4288059802
0.259 0.315 0.101987 4294967295
0.249 0.29933599 0.090999998 4293585901
0.21217999 0.29499999 0.103 4288717469
0.26100001 0.315 0.101814 4294967295
0.25299999 0.300309 0.090999998 4292994792
0.213 0.29499999 0.104112 4287927443
0.26300001 0.315 0.102322 4294967295
0.22187199 0.29499999 0.103 4294967295
0.26499999 0.31299999 0.101306 4294967295
0.275217 0.31299999 0.101 4289704881
0.275217 0.313409 0.101 4289704881
0.27424201 0.315 0.101 4289440942
0.22499999 0.317 0.110883 4286021769
0.22823 0.317 0.109 4285890183
0.22823 0.317 0.10974 4285890183
0.229 0.31748301 0.109 4284904577
0.23100001 0.31873301 0.109 4285561739
0.22499999 0.31299999 0.10687 4285495429
0.229 0.31900001 0.110622 4285824649
0.22811301 0.31299999 0.105 4284837246
0.22811301 0.31299999 0.105717 4284837246
0.231539 0.31900001 0.109 4285429892
0.231539 0.31900001 0.109341 4285429892
0.229 0.313604 0.105 4284903294
0.233 0.319792 0.109 4285165438
0.23088901 0.315 0.105 4284443256
0.23088901 0.315 0.106263 4284443256
0.235 0.32078698 0.109 4285229947
0.23100001 0.31507298 0.105 4284311159
0.243 0.317 0.110886 4294309365
0.233 0.316044 0.105 4284245366
0.24682401 0.317 0.109 4294967295
0.24682401 0.317 0.10939 4294967295
0.243 0.31299999 0.106891 4294967295
0.25099999 0.31867999 0.109 4294967295
0.24598199 0.31299999 0.105 4294967295
0.249 0.31900001 0.110241 4294967295
0.24699999 0.314105 0.105 4294967295
0.25131598 0.31900001 0.109 4294967295
0.25131598 0.31900001 0.10922699 4294967295
0.25048801 0.315 0.105 4294967295
0.25048801 0.315 0.10567199 4294967295
0.212672 0.30500001 0.117 4287926657
0.25299999 0.320283 0.109 4294967295
0.25099999 0.31545201 0.105 4294967295
0.212093 0.30700001 0.117 4287071604
0.25299999 0.31641799 0.105 4294967295
0.21371201 0.29699999 0.111 4289506987
0.21302699 0.29899999 0.111 4289638317
0.21302699 0.299068 0.111 4289638317
0.21547 0.289 0.103 4288848808
0.21547 0.29093301 0.103 4288848808
0.21498199 0.29100001 0.103 4288257180
0.25885999 0.29499999 0.082999997 4293125351
0.25885999 0.29499999 0.084555097 4293125351
0.259 0.29515499 0.082999997 4293323244
0.26100001 0.296518 0.082999997 4292928228
0.26100001 0.296518 0.084602401 4292928228
0.26699999 0.29300001 0.083612703 4289113017
0.26699999 0.29499999 0.084368795 4292665315
0.27692699 0.29300001 0.082999997 4290823630
0.27700001 0.29300001 0.083202906 4290823884
0.21187399 0.30899999 0.119 4286742376
0.276568 0.29499999 0.082999997 4290560200
0.21105801 0.31099999 0.119 4286874224
0.21105801 0.31273198 0.119 4286874224
0.27700001 0.29499999 0.084417097 4290494663
0.21977 0.31099999 0.119 4294177779
0.257543 0.317 0.105 4294967295
0.257543 0.317 0.105088 4294967295
0.259 0.31744602 0.105 4294967295
0.213173 0.301 0.117 4288387216
0.213173 0.30222902 0.117 4288387216
0.26100001 0.31838 0.105 4294967295
0.212926 0.303 0.117 4289110166
0.26344901 0.317 0.105 4294967295
0.26344901 0.31753501 0.105 4294967295
0.213 0.303 0.117632 4288058249
0.257 0.31900001 0.106461 4294967295
0.259 0.31900001 0.105825 4294967295
0.26100001 0.31900001 0.105438 4294967295
0.22499999 0.30121702 0.094999999 4282340450
0.26300001 0.31900001 0.106965 4294967295
0.227 0.30248401 0.094999999 4282668383
0.26499999 0.317 0.106237 4294967295
0.22499999 0.303 0.096785799 4284904836
0.274376 0.317 0.105 4289836210
0.273312 0.31900001 0.105 4289637803
0.273312 0.319763 0.105 4289637803
0.22781399 0.303 0.094999999 4283655282
0.22781399 0.303 0.095485903 4283655282
0.229 0.30385599 0.094999999 4282472035
0.23100001 0.30489999 0.094999999 4283327341
0.24376401 0.301 0.094999999 4285366156
0.24376401 0.301 0.095849998 4285366156
0.245996 0.303 0.094999999 4288061349
0.245996 0.303 0.096505798 4288061349
0.24699999 0.30398098 0.094999999 4292401629
0.257303 0.30899999 0.097000003 4294967295
0.257303 0.30899999 0.098395102 4294967295
0.257 0.302827 0.090999998 4290362302
0.259 0.309948 0.097000003 4294967295
0.25712499 0.303 0.090999998 4284902256
0.25712499 0.303 0.091158994 4284902256
0.26100001 0.309306 0.097000003 4294967295
0.259 0.30430803 0.090999998 4292336346
0.26300001 0.30913502 0.097000003 4294967295
0.262788 0.303 0.090999998 4292532949
0.262788 0.304441 0.090999998 4292532949
0.259 0.31099999 0.098936401 4294967295
0.27744198 0.301 0.090999998 4290296769
0.27744198 0.30208099 0.090999998 4290296769
0.26100001 0.31099999 0.098084301 4294967295
0.276503 0.303 0.090999998 4290100157
0.26300001 0.31099999 0.097795799 4294967295
0.27700001 0.303 0.092374898 4290165437
0.265421 0.30899999 0.097000003 4294967295
0.265421 0.309672 0.097000003 4294967295
0.26499999 0.31099999 0.097876407 4294967295
0.27595499 0.30899999 0.097000003 4289704628
0.27506799 0.31099999 0.097000003 4289507506
0.27506799 0.31112599 0.097000003 4289507506
0.212935 0.30500001 0.119 4288057215
0.22499999 0.30538502 0.098999999 4285627787
0.213 0.30500001 0.119619 4286544998
0.227 0.30686 0.098999999 4286811030
0.212547 0.30700001 0.119 4287203443
0.22499999 0.30700001 0.100544 4285628038
0.2273 0.30700001 0.098999999 4285233284
0.2273 0.30700001 0.099162698 4285233284
0.229 0.307823 0.098999999 4285100415
0.23100001 0.30887499 0.098999999 4286087053
0.241944 0.30500001 0.098999999 4285559936
0.241944 0.30500001 0.1008 4285559936
0.22499999 0.29304099 0.086999997 4286021512
0.244591 0.30500001 0.098999999 4294967295
0.244591 0.30580398 0.098999999 4294967295
0.244591 0.30580398 0.100805 4294967295
0.227 0.29418799 0.086999997 4286218892
0.245 0.306833 0.098999999 4286286741
0.22499999 0.29499999 0.088903502 4285626753
0.244969 0.30700001 0.098999999 4293980401
0.244969 0.30700001 0.100835 4293980401
0.228313 0.29499999 0.086999997 4285693061
0.228313 0.29499999 0.0877252 4285693061
0.24503399 0.30700001 0.098999999 4294507003
0.24503399 0.30702898 0.098999999 4294507003
0.229 0.295499 0.086999997 4285758851
0.248365 0.30700001 0.098999999 4290035135
0.23100001 0.29655999 0.086999997 4285693320
0.249 0.30784398 0.098999999 4294967295
0.24699999 0.29499999 0.088135302 4294967295
0.25005099 0.29499999 0.086999997 4294967295
0.25005099 0.29499999 0.087604105 4294967295
0.25099999 0.29584399 0.086999997 4294967295
0.213981 0.29699999 0.113 4289769131
0.213351 0.29899999 0.113 4289769131
0.213351 0.300226 0.113 4289769131
0.277257 0.289 0.081 4291481301
0.277257 0.29023001 0.081 4291481301
0.276878 0.29100001 0.081 4290955727
0.22499999 0.290896 0.085000001 4288191392
0.27700001 0.29100001 0.081358097 4290889934
0.22513799 0.29100001 0.085000001 4286087305
0.22513799 0.29100001 0.085095398 4286087305
0.227 0.29225501 0.085000001 4286482065
0.22499999 0.309286 0.103 4285758855
0.227 0.31042802 0.103 4286482065
0.24869999 0.29100001 0.085000001 4294967295
0.24869999 0.29100001 0.085235499 4294967295
0.22499999 0.31099999 0.10483 4285495429
0.228009 0.31099999 0.103 4285100928
0.228009 0.31099999 0.103586 4285100928
0.257 0.307814 0.094999999 4283653212
0.229 0.31161299 0.103 4284837760
0.259 0.30823299 0.094999999 4283521373
0.23100001 0.31280398 0.103 4286218635
0.26100001 0.30718499 0.094999999 4289244334
0.23899999 0.30899999 0.104308 4293520620
0.26429701 0.30700001 0.094999999 4294967295
0.26429701 0.30867699 0.094999999 4294967295
0.243775 0.30899999 0.103 4286021510
0.277051 0.30500001 0.094999999 4290165179
0.277051 0.30511999 0.094999999 4290165179
0.24699999 0.30929002 0.103 4294967295
0.27620402 0.30700001 0.094999999 4289705144
0.24550501 0.31099999 0.103 4294967295
0.24699999 0.31215101 0.103 4294967295
0.25098699 0.30899999 0.103 4294967295
0.25098699 0.30987501 0.103 4294967295
0.27792999 0.29699999 0.089000002 4290691784
0.209425 0.31299999 0.125 4289900197
0.209425 0.31327 0.125 4289900197
0.27731401 0.29899999 0.089000002 4290363332
0.27731401 0.30028102 0.089000002 4290363332
0.21451101 0.29300001 0.105 4288257437
0.213514 0.29499999 0.105 4288388763
0.213514 0.29564101 0.105 4288388763
0.21558599 0.289 0.105 4289573043
0.21558599 0.29099301 0.105 4289573043
0.21499801 0.29100001 0.105 4288914598
0.215 0.29100001 0.105016 4289310128
0.22499999 0.299375 0.093000002 4283062363
0.21228999 0.30899999 0.121 4287400309
0.227 0.300625 0.093000002 4283718235
0.211191 0.31099999 0.121 4287465852
0.211191 0.31141299 0.121 4287465852
0.238949 0.29699999 0.093000002 4292731103
0.238949 0.29699999 0.093774006 4292731103
0.219785 0.31099999 0.121 4294967295
0.23899999 0.297048 0.093000002 4294967295
0.23899999 0.29899999 0.094350301 4294375415
0.24278599 0.29899999 0.093000002 4294967295
0.24278599 0.29899999 0.093983397 4294967295
0.243 0.299247 0.093000002 4291810777
0.22499999 0.31313699 0.107 4285627014
0.227 0.31442001 0.107 4286153357
0.22499999 0.315 0.108743 4285627014
0.22781 0.315 0.107 4285100672
0.22781 0.315 0.107568 4285100672
0.229 0.31573302 0.107 4284508794
0.24250701 0.31299999 0.107 4293323241
0.243 0.315 0.107805 4294967295
0.257305 0.315 0.103 4294967295
0.257305 0.315 0.103167 4294967295
0.245 0.315 0.10726999 4294967295
0.259 0.31613103 0.103 4294967295
0.24758701 0.315 0.107 4294967295
0.24758701 0.315 0.107458 4294967295
0.26100001 0.31615901 0.103 4294967295
0.249 0.316369 0.107 4294967295
0.26345402 0.315 0.103 4294967295
0.26345402 0.31551701 0.103 4294967295
0.26499999 0.315 0.103567 4294967295
0.27573198 0.31299999 0.103 4289967540
0.27573198 0.314401 0.103 4289967540
0.27471799 0.315 0.103 4289835953
0.27500001 0.315 0.10486 4289835954
0.22499999 0.317112 0.111 4285955720
0.227 0.31831399 0.111 4286416273
0.22499999 0.31900001 0.11282299 4286416522
0.22832 0.31900001 0.111 4286153098
0.22832 0.31900001 0.111695 4286153098
0.229 0.31939098 0.111 4285824393
0.23100001 0.320566 0.111 4287138705
0.23899999 0.317 0.112069 4294967295
0.245 0.31900001 0.111552 4294967295
0.24759801 0.31900001 0.111 4294967295
0.24759801 0.31900001 0.111177 4294967295
0.21386099 0.301 0.119 4287991941
0.213213 0.303 0.119 4287334519
0.213213 0.304445 0.119 4287334519
0.257 0.29556298 0.085000001 4294967295
0.257 0.29556298 0.0852805 4294967295
0.27772298 0.29300001 0.085000001 4291021007
0.27717403 0.29499999 0.085000001 4290691527
0.27717403 0.295755 0.085000001 4290691527
0.22499999 0.303213 0.097000003 4285101703
0.227 0.30479598 0.097000003 4285166727
0.237 0.301 0.098014705 4294967295
0.241731 0.301 0.097000003 4294967295
0.241731 0.301 0.097669199 4294967295
0.244324 0.303 0.097000003 4286286741
0.244324 0.303 0.098227896 4286286741
0.21317101 0.30500001 0.121 4285757003
0.21317101 0.305814 0.121 4285757003
0.245 0.30350101 0.097000003 4285958285
0.212778 0.30700001 0.121 4287729787
0.213 0.30700001 0.122912 4285822540
0.21424299 0.29699999 0.115 4289900201
0.21367301 0.29899999 0.115 4289111200
0.21367301 0.300762 0.115 4289111200
0.257 0.30923 0.098999999 4294967295
0.258885 0.31099999 0.098999999 4294967295
0.258885 0.31099999 0.0994303 4294967295
0.259 0.31107 0.098999999 4294967295
0.26100001 0.31199798 0.098999999 4294967295
0.26300001 0.312123 0.098999999 4294967295
0.26579401 0.31099999 0.098999999 4294967295
0.26579401 0.311986 0.098999999 4294967295
0.27650401 0.30899999 0.098999999 4287402131
0.27562499 0.31099999 0.098999999 4287335309
0.27562499 0.31250602 0.098999999 4287335309
0.214599 0.29300001 0.107 4289178539
0.21392599 0.29499999 0.107 4288915363
0.21392599 0.29651502 0.107 4288915363
0.277962 0.289 0.082999997 4291546836
0.27754098 0.29100001 0.082999997 4291218386
0.27754098 0.29274899 0.082999997 4291218386
0.257 0.308689 0.097000003 4294967295
0.27741599 0.30500001 0.097000003 4290362302
0.27741599 0.30643499 0.097000003 4290362302
0.27683499 0.30700001 0.097000003 4290099386
0.22499999 0.29509601 0.089000002 4285824132
0.27700001 0.30700001 0.098274693 4290099386
0.227 0.29656601 0.089000002 4285890695
0.237 0.29300001 0.0898486 4294967295
0.27831602 0.29699999 0.090999998 4290757834
0.26699999 0.303 0.093489602 4294967295
0.27774 0.29899999 0.090999998 4290625734
0.277926 0.301 0.093000002 4290625477
0.27717701 0.303 0.093000002 4290165436
0.27717701 0.30365101 0.093000002 4290165436
0.257 0.319666 0.107 4294967295
0.259 0.320133 0.107 4294967295
0.26302099 0.31900001 0.107 4294967295
0.26302099 0.31902599 0.107 4294967295
0.27460301 0.317 0.107 4290164916
0.27377802 0.31900001 0.107 4289967280
0.27377802 0.32073998 0.107 4289967280
0.22499999 0.30742198 0.101 4285693833
0.227 0.30857399 0.101 4286285197
0.245 0.305879 0.101 4286746267
0.242819 0.30700001 0.101 4286021510
0.243 0.30723098 0.101 4285428608
0.243 0.30723098 0.10124701 4285428608
0.245837 0.30700001 0.101 4289443004
0.245837 0.30700001 0.101902 4289443004
0.21422501 0.301 0.121 4287137393
0.24842301 0.30700001 0.101 4290824909
0.21234801 0.30899999 0.123 4287926663
0.213608 0.303 0.121 4286281819
0.211604 0.31099999 0.123 4288058507
0.211604 0.31179598 0.123 4288058507
0.219439 0.31099999 0.123 4294967295
0.22499999 0.31116399 0.105 4285627529
0.227 0.31238502 0.105 4286415500
0.235 0.30899999 0.106665 4286941060
0.238408 0.30899999 0.105 4289770416
0.245571 0.31099999 0.105 4284968572
0.21579601 0.289 0.107 4289836469
0.215267 0.29100001 0.107 4289902007
0.215267 0.29185399 0.107 4289902007
0.22499999 0.315245 0.109 4285627529
0.227 0.31623998 0.109 4286087824
0.241814 0.315 0.109 4294967295
0.241814 0.315 0.109652 4294967295
0.229 0.289 0.089814 4294967295
0.23899999 0.299674 0.094999999 4294967295
0.23100001 0.289 0.090968698 4294967295
0.214591 0.29699999 0.117 4289440422
0.241 0.300098 0.094999999 4294967295
0.215 0.29699999 0.11889 4290164403
0.21394701 0.29899999 0.117 4288979353
0.27830899 0.29300001 0.086999997 4291218129
0.27783999 0.29499999 0.086999997 4290823371
0.22499999 0.31919801 0.113 4286349962
0.227 0.320393 0.113 4286285198
0.235 0.317 0.114406 4294967295
0.23774001 0.317 0.113 4294967295
0.23774001 0.317 0.113408 4294967295
0.23899999 0.31900001 0.113749 4294967295
0.243117 0.31900001 0.113 4290691776
0.243117 0.31900001 0.11308 4290691776
0.276021 0.31299999 0.105 4290427575
0.27502099 0.315 0.105 4290098867
0.27502099 0.315065 0.105 4290098867
0.21344601 0.30500001 0.123 4286019151
0.21301199 0.30700001 0.123 4286084686
0.21301199 0.30704001 0.123 4286084686
0.278671 0.29699999 0.093000002 4291021004
0.278494 0.289 0.085000001 4291744730
0.278088 0.29100001 0.085000001 4291284178
0.27833 0.29899999 0.093000002 4290822855
0.21472901 0.301 0.123 4287333742
0.215 0.301 0.124121 4287400058
0.21406101 0.303 0.123 4286347099
0.21470301 0.29300001 0.109 4289572523
0.21403399 0.29499999 0.109 4289506988
0.237 0.29499999 0.0917392 4294967295
0.27682599 0.30899999 0.101 4290296249
0.27700001 0.30899999 0.101951 4290230713
0.233 0.301 0.10036799 4286352531
0.27619401 0.31099999 0.101 4290099385
0.235 0.303 0.100855 4290822855
0.277803 0.30500001 0.098999999 4290559937
0.27708 0.30700001 0.098999999 4290296251
0.27708 0.30728298 0.098999999 4290296251
0.21263801 0.30899999 0.125 4288781201
0.21172501 0.31099999 0.125 4288781203
0.21172501 0.312058 0.125 4288781203
0.215955 0.289 0.109 4289968053
0.26499999 0.31900001 0.110926 4294967295
0.21538 0.29100001 0.109 4289902774
0.21538 0.292146 0.109 4289902774
0.27483898 0.317 0.109 4290427832
0.27500001 0.317 0.110053 4290427833
0.27399099 0.31900001 0.109 4290296243
0.22771201 0.289 0.090999998 4294967295
0.22771201 0.289 0.092231303 4294967295
0.229 0.29100001 0.092952006 4292139227
0.27868602 0.29300001 0.089000002 4291218642
0.23440601 0.30899999 0.107 4291480007
0.23440601 0.30899999 0.108431 4291480007
0.27843398 0.29499999 0.089000002 4290100676
0.23576401 0.30899999 0.107 4286810506
0.23576401 0.30935699 0.107 4286810506
0.278308 0.301 0.094999999 4290691525
0.27777702 0.303 0.094999999 4290559938
0.233 0.30500001 0.104779 4286745483
0.233 0.30700001 0.104742 4293520106
0.215028 0.29699999 0.119 4289900460
0.215028 0.297075 0.119 4289900460
0.21437399 0.29899999 0.119 4288518803
0.27877802 0.289 0.086999997 4291876571
0.22499999 0.29699999 0.101 4294046450
0.27900001 0.289 0.087988406 4291810264
0.278586 0.29100001 0.086999997 4291613399
0.214834 0.29300001 0.111 4289638826
0.215 0.29300001 0.11288 4290034099
0.21417899 0.29499999 0.111 4289638315
0.213963 0.30500001 0.125 4286871645
0.213424 0.30700001 0.125 4287003491
0.213424 0.308245 0.125 4287003491
0.278981 0.29699999 0.094999999 4291415761
0.215234 0.301 0.125 4286479196
0.215234 0.301631 0.125 4286479196
0.27900001 0.29699999 0.095277496 4291218641
0.21458501 0.303 0.125 4286873441
0.278671 0.29899999 0.094999999 4291020747
0.215 0.303 0.12673101 4286215767
0.27612799 0.31299999 0.107 4290427834
0.27532598 0.315 0.107 4290427833
0.27532598 0.31597197 0.107 4290427833
0.23414201 0.317 0.115 4286088067
0.23414201 0.317 0.11558 4286088067
