# .PCD v0.7 - Point Cloud Data file format
VERSION 0.7
FIELDS x y z rgb
SIZE 4 4 4 4
TYPE F F F F
COUNT 1 1 1 1
WIDTH 1061
HEIGHT 1
VIEWPOINT 0 0 0 1 0 0 0
POINTS 1061
DATA ascii
-0.11693071 0.11693071 0.95900005 1.9393704e-39
-0.11188333 0.11693071 0.95900005 2.7695683e-40
-0.10851842 0.1169307 0.95899999 5.6051939e-45
-0.042482015 0.11566886 0.95899999 2.9492176e-39
-0.037855264 0.11693071 0.95900005 3.7821984e-39
-0.032807894 0.11693071 0.95900005 3.9673044e-39
-0.028321343 0.11636988 0.95900005 1.1529873e-38
-0.022713158 0.11693071 0.95900005 2.1297045e-38
-0.01766579 0.11693071 0.95900005 2.3509677e-38
-0.012843357 0.11725389 0.95771426 2.3509684e-38
-0.0075473688 0.11656491 0.95600003 2.0096331e-38
-0.13712017 0.12113684 0.95899999 2.7698598e-39
-0.13207281 0.12281928 0.95900005 2.8617065e-39
-0.12702544 0.12113684 0.95900005 3.1382864e-39
-0.12366052 0.12029561 0.95899999 2.6791061e-39
-0.1110421 0.12029561 0.95899999 4.0609475e-39
-0.10851842 0.12029561 0.95899999 3.322672e-39
-0.037014034 0.12029561 0.95899999 6.8210669e-39
-0.032807894 0.12113684 0.95900005 1.2716547e-38
-0.028601754 0.12029561 0.95899999 3.6848124e-40
-0.022376668 0.1209686 0.95899999 1.6413166e-38
-0.0173293 0.1209686 0.95899999 2.350972e-38
-0.013459649 0.12029561 0.95899999 2.3508281e-38
0.46866971 0.1369057 0.95749998 0
0.47311577 0.13865788 0.958 1.4012985e-45
-0.15052807 0.14633508 0.95599997 0
-0.14843157 0.14759298 0.95599997 0
-0.14004561 0.14843157 0.95599997 3.9236357e-44
-0.13752982 0.14843157 0.95599997 3.2287122e-39
-0.15010877 0.15010877 0.95599997 0
-0.14843157 0.15010877 0.95599997 0
-0.14004561 0.15010877 0.95599997 0
-0.13621202 0.15154636 0.95599991 9.8090893e-45
-0.13231592 0.1519901 0.95728576 4.6066146e-40
-0.12812981 0.1529828 0.95719993 1.2893501e-39
-0.12262456 0.15370394 0.95749998 1.4012985e-45
-0.11777193 0.15394475 0.95899999 2.8866748e-42
-0.13165966 0.15514036 0.95599997 0
-0.12740287 0.15640864 0.95642847 0
-0.12244825 0.1571307 0.95790905 0
-0.11693071 0.15730965 0.95900005 2.7875049e-40
-0.11188333 0.15815087 0.95900005 1.2932513e-39
-0.12662807 0.16184911 0.95600003 0
-0.12252917 0.1619761 0.95674998 0
-0.11693071 0.16235703 0.95900005 0
-0.11209364 0.16256733 0.95900005 4.2038954e-45
-0.10851842 0.16403948 0.95899999 0
-0.12243509 0.1660421 0.95599997 0
-0.11803246 0.16667105 0.95599991 0
-0.11263442 0.16727346 0.95824999 0
-0.10784544 0.16774088 0.95899999 2.8025969e-45
-0.11740351 0.17191227 0.95599991 7.272739e-43
-0.11275925 0.17200358 0.95736372 9.3636165e-41
-0.1074238 0.17301458 0.95862508 8.301222e-40
-0.10347105 0.17413421 0.95899999 4.6422496e-40
-0.11740351 0.17694385 0.95599991 1.4755056e-39
-0.11321052 0.17694385 0.95599991 9.2340804e-40
-0.10756272 0.17731361 0.95799989 8.2977048e-40
-0.10305043 0.17791973 0.95899999 3.7022726e-40
-0.12243509 0.18197544 0.95599991 1.4012985e-45
-0.11824211 0.18197542 0.95599991 8.4077908e-45
-0.11321052 0.18197544 0.95599991 1.8477241e-40
-0.10817894 0.18197542 0.95599991 1.2918304e-39
-0.10271068 0.18243937 0.9576363 7.4081465e-40
-0.098423682 0.18422894 0.95899999 1.1099447e-39
-0.11740351 0.18532982 0.95599997 0
-0.11321052 0.18532984 0.95600003 0
-0.10817894 0.18616843 0.95599991 2.8025969e-45
-0.1022523 0.18717462 0.9576363 1.8547446e-40
-0.098423682 0.18759386 0.95899993 5.5533598e-40
-0.08664649 0.18843509 0.95899999 6.4572254e-40
-0.084964037 0.18843509 0.95899999 4.6133128e-40
-0.10164532 0.1923728 0.95766664 0
-0.097582459 0.19264124 0.95900005 4.2038954e-45
-0.082440346 0.19348246 0.95899999 1.2904235e-39
-0.10078815 0.19737937 0.95749998 0
-0.097582459 0.19768859 0.95900005 0
-0.1010155 0.20119326 0.95699996 0
-0.09719941 0.20271033 0.95799994 0
-0.093376316 0.20441842 0.95899999 0
-0.08664649 0.20357719 0.95899999 0
-0.084964037 0.20357719 0.95899999 0
-0.096833512 0.20625596 0.95660001 0
-0.092251107 0.2080408 0.95825005 0
-0.08748772 0.20778334 0.95900005 0
-0.084291056 0.20811982 0.95899999 0
-0.092245609 0.21048772 0.95599997 0
-0.087911397 0.21212037 0.95674992 0
-0.084122807 0.21283071 0.95900005 0
-0.086934499 0.21607836 0.95600003 0
-0.083649121 0.2178248 0.95771426 0
-0.082614787 0.22218695 0.95685709 0
-0.079791665 0.22341534 0.95749998 0
0.36677545 0.22965527 0.95899999 6.5429918e-39
0.36277962 0.23323047 0.95900005 7.2809016e-39
0.36761662 0.23302017 0.95900005 5.8050639e-39
0.37098157 0.23302019 0.95899993 6.1738394e-39
0.40799561 0.2338614 0.95900005 1.8657168e-40
0.4113605 0.23470262 0.95899999 4.7237771e-42
0.35839269 0.23827535 0.95833343 6.8195689e-39
0.36256313 0.23750649 0.95771426 5.2511628e-39
0.36740634 0.23785724 0.95900005 4.6079528e-39
0.37098157 0.23722631 0.95899999 5.5295616e-39
0.39958331 0.23975 0.95899999 6.7270188e-39
0.402107 0.23975 0.95899999 6.4464214e-40
-0.074713163 0.24260963 0.95699996 0
0.35360175 0.24189474 0.95749998 7.2816415e-39
0.3564035 0.24067718 0.95599997 6.4504319e-39
0.36395085 0.24151579 0.95599997 4.7909133e-39
0.36779329 0.24229969 0.958 5.1596973e-39
0.37098157 0.24479736 0.95899999 5.2537034e-39
0.39369476 0.24479736 0.95899999 6.2638798e-39
0.39802518 0.24313645 0.95814288 6.3578649e-39
0.40246752 0.24335526 0.95900005 2.4867485e-39
0.40631315 0.24479736 0.95899999 0
0.41304299 0.2431149 0.95899993 8.4077908e-45
-0.07655175 0.24984474 0.95899999 5.6051939e-45
-0.074869297 0.24816227 0.95899993 4.2038954e-45
0.36982104 0.24738595 0.95599997 4.603648e-39
0.37255493 0.24790174 0.95799994 5.0657094e-39
0.37771139 0.24984474 0.95899993 5.4362771e-39
0.38864738 0.24984474 0.95899999 5.8050625e-39
0.39184538 0.24758925 0.95771426 6.5437051e-39
0.40273729 0.24751447 0.95649999 2.118689e-39
0.40631315 0.24816227 0.95899993 9.8090893e-45
0.41472542 0.24816227 0.95899999 7.0064923e-45
0.41510525 0.24906316 0.95599997 7.0064923e-45
0.49896488 0.24906316 0.95599997 0
0.50053066 0.24816227 0.95899999 2.8025969e-45
0.37796181 0.25113377 0.95749998 3.4973061e-39
0.38275877 0.25152719 0.95899993 3.8668116e-39
0.38832718 0.2515479 0.95779991 4.0540812e-39
0.4033649 0.25074035 0.95599997 2.3027201e-39
0.40631315 0.25236839 0.95899999 1.0127128e-39
0.49896488 0.25074035 0.95599997 0
0.50288612 0.25287312 0.95899999 0
0.42773685 0.25910935 0.958 2.3996297e-39
0.43019998 0.25744912 0.95599997 2.8598848e-39
0.49896488 0.25744912 0.95600003 1.821688e-44
0.50221312 0.258257 0.95899993 2.8025969e-45
0.48286384 0.26214522 0.95599997 5.630413e-39
0.48682666 0.26348317 0.95719993 5.0772477e-39
0.49277106 0.26275527 0.95699996 1.3905015e-39
0.49767783 0.26268792 0.95674992 1.1153551e-39
0.50154018 0.26364088 0.95899999 2.5919355e-39
0.35824209 0.26823005 0.95771426 8.665271e-39
0.36088684 0.26835173 0.95899999 9.5868811e-39
0.4668816 0.2784465 0.95899993 1.2731677e-38
0.47265899 0.27779937 0.95749998 9.8743071e-39
0.476908 0.27697894 0.95763642 7.4804269e-39
0.48034123 0.27676404 0.95899999 4.6259315e-39
0.46351665 0.28097016 0.95899999 1.2823874e-38
0.46688154 0.28097019 0.95900005 1.1901929e-38
0.47213632 0.28197104 0.95839995 1.0796645e-38
0.47707149 0.28221053 0.95749998 8.7700979e-39
0.48101419 0.28214788 0.95899999 4.9947112e-39
0.47277015 0.28517631 0.95899999 1.0523288e-38
0.47745705 0.28661844 0.95900005 9.0481337e-39
0.48118246 0.28517631 0.95899999 4.3511424e-39
0.49295968 0.35415703 0.95899999 1.144054e-38
0.49772659 0.35303542 0.95900005 1.0053652e-38
0.50200284 0.35268483 0.95900005 1.079013e-38
0.49211842 0.35752195 0.95900005 7.1048383e-39
0.4971658 0.35752195 0.95900005 7.7480399e-39
0.50173241 0.35776228 0.95900005 6.8253675e-39
0.48880288 0.36163041 0.958 5.2602138e-39
0.49241415 0.3616488 0.95712501 6.0852969e-39
0.49666771 0.36144051 0.95749998 6.2696728e-39
0.50263375 0.36130747 0.95899999 6.455157e-39
0.48387015 0.36646664 0.95599997 5.6243216e-39
0.52324384 0.37939385 0.95899999 1.9285454e-39
0.52576751 0.38107634 0.95899999 3.1224167e-39
0.33909124 -0.34585613 0.96399999 0
0.34247366 -0.3458561 0.96399999 0
0.34754738 -0.3458561 0.96399999 2.8025969e-45
0.3378832 -0.34223208 0.96399987 0
0.3412295 -0.34258106 0.96239996 0
0.34724826 -0.34302893 0.96200001 1.4012985e-45
0.35132691 -0.34232572 0.96200007 3.657389e-43
0.33345377 -0.33627251 0.96399999 0
0.3371886 -0.33761141 0.96399987 0
0.32640702 -0.3306351 0.96399999 0
0.33242923 -0.33299297 0.96266669 0
0.33669999 -0.33332455 0.96200007 0
0.32353336 -0.32775789 0.96299994 0
0.32826141 -0.32910526 0.96200001 0
0.31948069 -0.3222959 0.96266669 0
0.32235438 -0.32488596 0.96200001 0
0.31287718 -0.31541404 0.96399999 0
0.3172287 -0.31779242 0.96266669 0
0.30864912 -0.31118596 0.96399999 0
0.31238908 -0.3128123 0.96249998 0
0.31644738 -0.31475967 0.96200001 0
0.37214211 -0.31138423 0.96200001 5.6051939e-45
0.30722016 -0.30722061 0.9634999 0
0.37231481 -0.30758736 0.96244442 2.8025969e-45
0.37629825 -0.30611229 0.96399999 1.4012985e-45
0.30299431 -0.30130482 0.96349996 0
0.30647939 -0.30310309 0.96249998 0
0.37214211 -0.30322689 0.96199995 3.629363e-43
0.37714386 -0.3018842 0.96399999 0
0.29850173 -0.29681051 0.96399999 0
0.30184054 -0.29752514 0.96266663 0
0.37675351 -0.29819122 0.96299994 0
0.41939825 -0.29619473 0.96200001 1.8693041e-40
0.42192984 -0.29619473 0.96200001 9.546626e-41
0.29850173 -0.29173684 0.96399999 0
0.30227691 -0.29240268 0.96276915 0
0.30632105 -0.29113159 0.96200001 0
0.33332455 -0.29113159 0.96200001 2.7658689e-40
0.37885556 -0.29322398 0.96333331 0
0.38193569 -0.29060936 0.96399999 0
0.41939825 -0.29366314 0.96200001 2.5335476e-42
0.42277369 -0.29281926 0.96200001 1.8693322e-40
0.29850173 -0.2883544 0.96399999 0
0.30287251 -0.2885181 0.96266657 0
0.30767125 -0.28843123 0.96200001 0
0.31255352 -0.28720963 0.963 0
0.31772318 -0.28731894 0.96280003 1.8404794e-40
0.32300252 -0.28752881 0.96285713 9.2205439e-41
0.32792515 -0.28795436 0.96266663 4.2038954e-45
0.33261201 -0.28794083 0.9634285 7.3755803e-40
0.33716667 -0.2881538 0.96333325 7.3613151e-40
0.34190702 -0.28784296 0.96299994 1.8403393e-40
0.34640437 -0.28649035 0.96200001 0
0.37889299 -0.2886 0.96200001 3.643376e-43
0.38266695 -0.28721082 0.963 0
0.38644561 -0.28750879 0.96399999 0
0.42344874 -0.28843123 0.96200001 3.7095733e-40
0.33148071 -0.28497192 0.96399999 1.6595255e-39
0.3433193 -0.28497192 0.96399999 3.6878252e-40
0.34739739 -0.28319737 0.96299994 2.8025969e-45
0.35169268 -0.28242251 0.963 0
0.35719883 -0.28120002 0.96266669 2.1664074e-42
0.36032808 -0.28100526 0.96200001 3.7202933e-40
0.38286465 -0.28253534 0.9622857 9.18397e-41
0.38712209 -0.28294247 0.96399993 0
0.40927193 -0.282693 0.96200001 1.2637656e-38
0.35431227 -0.27989826 0.96399999 0
0.35811755 -0.27947545 0.96399999 9.5435432e-41
0.36279446 -0.27852434 0.9634285 4.6422356e-40
0.36694637 -0.27722958 0.96228564 6.4826169e-40
0.37214211 -0.27714762 0.96199995 6.4790436e-40
0.37744638 -0.27714762 0.96199995 6.4645822e-40
0.38262281 -0.27788597 0.96288884 4.6098095e-40
0.38729122 -0.27820703 0.96399993 9.39977e-41
0.41307545 -0.27749649 0.96299994 1.2913887e-38
0.36784211 -0.27482453 0.96399999 7.3902239e-40
0.37291577 -0.27482453 0.96399999 6.4717849e-40
0.37759736 -0.27369383 0.963 9.2268778e-40
0.38306317 -0.27397892 0.96399993 9.2123743e-40
0.38712209 -0.27279511 0.96399993 2.8908787e-42
0.41350526 -0.27482453 0.96399999 7.3821973e-39
0.41630992 -0.27331927 0.96266669 7.0101217e-39
0.42027017 -0.27313334 0.96399999 1.4349296e-42
0.38729122 -0.26975086 0.96399999 9.5082305e-41
0.42733893 -0.25816 0.96240008 0
0.42912543 -0.25426579 0.963 0
0.43458772 -0.25231403 0.96200001 9.4734783e-41
-0.45273069 -0.0063289474 0.96200001 6.1792722e-39
-0.44808951 -0.0059070177 0.96200007 6.4551416e-39
-0.44302633 -0.0059070177 0.96200007 6.9157512e-39
-0.45202747 -0.0036567252 0.96200007 1.869206e-40
-0.44787848 -0.002742544 0.96199995 9.2341225e-40
-0.4430263 -0.002531579 0.96200001 1.7549778e-39
-0.43820432 -0.0020493732 0.96199995 4.1534949e-39
-0.43332192 -0.0012657895 0.96200001 5.6239292e-39
-0.42783687 -0.00084385969 0.96200007 8.2939773e-40
-0.42446139 -0.0016877194 0.96200001 2.8025969e-45
-0.41939825 -0.00084385969 0.96200001 7.3708299e-43
-0.44133863 0.0016877194 0.96200001 1.6580906e-39
-0.43754125 0.0012657895 0.96200001 3.2254023e-39
-0.43239611 0.0023808612 0.96327263 3.5027151e-39
-0.42703503 0.0025368424 0.96399987 1.2006942e-39
-0.42251459 0.0025362575 0.96333331 9.219563e-41
-0.41939822 0.002531579 0.96200007 0
-0.42721358 0.0059100878 0.96249998 8.279628e-40
-0.42223334 0.0064777774 0.96333331 4.6313615e-40
-0.41939825 0.0059070177 0.96200001 3.5873241e-43
-0.38648772 0.014345614 0.96200001 8.3088731e-40
-0.38226843 0.014345613 0.96200007 2.3999745e-39
-0.37720525 0.014345613 0.96200007 3.2315162e-39
-0.37382984 0.014345614 0.96200001 2.0434e-39
-0.38648772 0.016033335 0.96200001 9.3294248e-41
-0.38226843 0.016033335 0.96200007 1.3861939e-39
-0.37844297 0.01605 0.963 2.2195335e-39
-0.35526493 0.024471929 0.96200001 9.7095971e-42
-0.35207236 0.023218859 0.96250004 6.5544615e-40
-0.34738889 0.022784211 0.96200007 3.7965281e-39
-0.34007543 0.024471929 0.96200001 5.4434728e-39
-0.33838773 0.024471929 0.96200001 5.8118952e-39
-0.3324807 0.023628071 0.96200001 1.6815582e-44
-0.32859895 0.023796843 0.96200001 2.6736789e-39
-0.3555111 0.027865497 0.96266669 1.2219323e-41
-0.35406724 0.027884796 0.96333331 5.6468685e-40
-0.34624559 0.027544562 0.96319997 3.4255806e-39
-0.34176317 0.028128654 0.96199995 1.673184e-39
-0.33704999 0.027032455 0.963 1.7582008e-39
-0.33232629 0.026214033 0.96399999 0
-0.32787195 0.027885964 0.96333331 5.553598e-40
-0.32488596 0.02784737 0.96200007 1.8730876e-40
-0.3433193 0.031287719 0.96399999 2.7716142e-39
-0.32775879 0.032944735 0.963 7.3901678e-40
-0.32488596 0.032910526 0.96200007 1.8513255e-40
-0.3535772 0.039661404 0.96200001 0
-0.32753131 0.03798626 0.96233338 2.7803723e-40
-0.32488596 0.036285967 0.96200001 1.821688e-44
-0.3558715 0.04348202 0.96249998 0
-0.35431227 0.041435085 0.96399999 0
-0.32787567 0.04256792 0.96228564 5.6051939e-45
-0.32319823 0.04416199 0.96200007 3.657389e-43
-0.31813511 0.044724565 0.96200007 1.8693181e-40
-0.35631987 0.048165496 0.96333331 0
-0.32217896 0.04650877 0.96399999 8.4077908e-45
-0.31541404 0.04650877 0.96399999 4.3454265e-42
-0.2405 0.049787719 0.96200001 1.821688e-44
-0.35695264 0.053163156 0.96200007 1.4751077e-39
-0.25062633 0.054850876 0.96200001 0
-0.24711823 0.054221403 0.96279991 2.8025969e-45
-0.24265131 0.053008329 0.96299994 2.8025969e-45
-0.23775789 0.054244209 0.96319997 4.2038954e-45
-0.23338947 0.054964911 0.96399999 2.8025969e-45
-0.24732319 0.057309121 0.96359998 0
-0.24387544 0.059914038 0.96200001 0
-0.24269122 0.060038596 0.96399999 0
-0.23881228 0.061601754 0.96200001 2.8025969e-45
-0.2618778 0.072009362 0.96199995 0
-0.25850233 0.072853215 0.96200007 0
-0.13191579 0.087943852 0.96399999 1.2010907e-39
-0.12768772 0.08878947 0.96399999 2.4910967e-39
-0.13223836 0.092385709 0.96371418 4.2038954e-45
-0.12716718 0.092385709 0.96371418 9.2219452e-41
-0.12404736 0.092824563 0.96200001 7.5249728e-43
-0.12742281 0.095356144 0.96200007 2.8025969e-45
-0.12235966 0.096481286 0.96200007 2.8025969e-45
-0.2405 0.10210702 0.96200001 0
-0.23698351 0.10219264 0.96280003 4.2038954e-45
-0.23374914 0.10295088 0.96200001 1.2611686e-44
-0.11673393 0.10154444 0.96199995 1.4012985e-45
-0.1125318 0.10239759 0.96274996 1.4012985e-45
-0.10908421 0.10316491 0.96399999 2.8025969e-45
-0.2303737 0.10548246 0.96200001 1.1070482e-39
-0.22699825 0.10660761 0.96200007 9.2552961e-41
-0.22145288 0.10741128 0.96199995 9.3993496e-41
-0.21709736 0.10812718 0.963 4.6279563e-40
-0.21202897 0.1081272 0.963 1.4012985e-45
-0.20696051 0.10812718 0.963 1.2611686e-44
-0.20337017 0.10801404 0.96200001 1.2611686e-44
-0.11189578 0.10615754 0.96200001 0
-0.10827263 0.10759614 0.96280003 1.4012985e-45
-0.096681871 0.10682923 0.96399999 1.836752e-40
-0.093234502 0.1084462 0.96333331 2.0272389e-39
-0.22615439 0.11054561 0.96200001 0
-0.22239649 0.11077543 0.96399999 1.4012985e-45
-0.21055789 0.11077543 0.96399999 1.44614e-42
-0.20717543 0.11077543 0.96399999 7.4128689e-43
-0.20174998 0.11242834 0.96366662 4.2038954e-45
-0.19771907 0.11216909 0.96324992 2.8025969e-45
-0.1923842 0.11239007 0.96333325 9.8090893e-45
-0.18757962 0.11238049 0.96324992 1.1042232e-42
-0.18311752 0.11251462 0.96199995 1.8802202e-40
-0.17847632 0.11349913 0.96200001 4.6640678e-40
-0.1738351 0.11392105 0.96200001 4.6963537e-40
-0.10632631 0.11223334 0.96199995 4.2038954e-45
-0.10333403 0.11280491 0.96399993 5.6051939e-45
-0.066803508 0.11415789 0.96399999 4.4268546e-39
-0.062508769 0.11235 0.96299994 3.0464439e-39
-0.057442103 0.11319561 0.963 1.8493398e-39
-0.053201169 0.114 0.96266669 2.0308542e-39
-0.049787719 0.11392105 0.96200001 2.8598848e-39
-0.1809614 0.11584912 0.96399999 7.5109598e-43
-0.17699826 0.11681579 0.96359998 1.8585281e-40
-0.17293999 0.11647755 0.96359998 1.8873388e-40
-0.16861543 0.11652561 0.96399993 1.1114006e-39
-0.16314708 0.11721843 0.96366662 1.664936e-39
-0.15830657 0.11862413 0.96249998 2.0329996e-39
-0.14598772 0.11898421 0.96200001 2.5847525e-39
-0.10668797 0.1172965 0.96199995 0
-0.10245109 0.117659 0.96324992 1.4012985e-45
-0.057501756 0.11584912 0.96399999 3.1386381e-39
-0.053273682 0.11669474 0.96399993 2.9528161e-39
-0.048155945 0.11743314 0.96311104 4.9803927e-39
-0.043374389 0.11830913 0.96200001 4.6091033e-39
-0.026722223 0.11842164 0.96200007 1.1161389e-38
-0.1564386 0.12092281 0.96399999 1.2965192e-39
-0.1527921 0.12155819 0.96233338 1.75714e-39
-0.1478115 0.12247387 0.96288884 1.9408152e-39
-0.1427111 0.12244561 0.96266663 2.3096145e-39
-0.13797104 0.12362543 0.96200001 2.4932771e-39
-0.12742281 0.12404736 0.96200007 2.9538951e-39
-0.12221184 0.12263508 0.96249998 2.6783858e-39
-0.11740449 0.12247387 0.96288884 2.9546112e-39
-0.11250827 0.12287869 0.9622857 3.5077822e-39
-0.10698663 0.12260284 0.96224999 1.0199533e-39
-0.10210702 0.12235965 0.96200001 1.0142562e-38
-0.097668417 0.12388245 0.96399999 1.5487777e-38
-0.04650877 0.12092281 0.96399999 4.2428515e-39
-0.042735793 0.12144808 0.96280003 3.9680344e-39
-0.038395613 0.12193772 0.96200001 4.1520628e-39
-0.02742544 0.12235966 0.96200001 8.1132463e-39
-0.14121754 0.12599649 0.96399999 1.9408222e-39
-0.13783509 0.12599649 0.96399999 2.0323046e-39
-0.1327614 0.12599649 0.96399999 2.5847525e-39
-0.12750994 0.12582223 0.96266669 2.8616995e-39
-0.12430526 0.12599649 0.96399999 2.9538951e-39
-0.11212841 0.12667298 0.96399993 2.1259463e-39
-0.10739297 0.12768771 0.96399987 5.2587536e-39
-0.10215497 0.12748209 0.96244442 1.4750571e-38
-0.097839996 0.12690455 0.96319997 1.4751291e-38
-0.17250526 0.13107018 0.96399999 7.5596717e-39
-0.1691228 0.13191579 0.96399999 1.8442573e-39
-0.10570175 0.13107018 0.96399999 1.6590897e-38
-0.1023193 0.13107018 0.96399999 1.5121155e-38
0.47171754 0.13923684 0.96200001 7.0064923e-45
0.47354388 0.14121754 0.96399999 4.2038954e-45
0.47509298 0.14092456 0.96200001 1.8439126e-40
-0.11054561 0.16117719 0.96200001 1.2611686e-44
-0.10759614 0.16333859 0.96280003 6.4501348e-40
-0.1020777 0.16368671 0.96399987 4.9832738e-39
-0.098260358 0.16354176 0.96399993 1.4480505e-38
-0.10595921 0.16759254 0.96250004 4.2038954e-45
-0.1025307 0.16806577 0.96399987 1.8439126e-40
-0.097245611 0.16743158 0.96399993 3.0457026e-39
-0.093017541 0.16996841 0.96399999 0
-0.10632632 0.17130351 0.96200001 2.8018262e-40
-0.10286702 0.17279685 0.96280003 9.2197031e-40
-0.093017541 0.17165965 0.96399999 0
-0.10105147 0.17733216 0.96266657 4.6205855e-40
-0.098373093 0.17786081 0.96399999 1.8439406e-40
-0.092311621 0.17849584 0.96324992 0
-0.087007888 0.17908335 0.963 5.6051939e-45
-0.083715789 0.17842457 0.96399999 3.7835059e-43
-0.1004193 0.18142982 0.96200001 1.8762826e-40
-0.096945457 0.18214546 0.96254539 9.3277432e-41
-0.091980696 0.18311755 0.96200001 0
-0.086917542 0.18311755 0.96200001 2.8025969e-45
-0.083715789 0.18011577 0.96399999 3.657389e-43
-0.096199997 0.1881807 0.96199995 5.5500387e-40
-0.091980703 0.18818071 0.96200001 1.4751441e-39
-0.087592632 0.18750563 0.96200001 4.6099496e-40
-0.083120182 0.18860266 0.96200001 1.2611686e-44
-0.095356144 0.19324386 0.96200007 2.8025969e-45
-0.091980703 0.19324388 0.96200001 3.7554799e-43
-0.086917549 0.19324383 0.96200001 5.5462973e-40
-0.082698248 0.19155614 0.96200001 1.3854778e-39
-0.095356144 0.19830704 0.96200007 0
-0.091980703 0.19830701 0.96200001 0
-0.087217987 0.1983013 0.96299994 0
-0.083715789 0.19787368 0.96399999 1.2611686e-44
-0.095356144 0.20168245 0.96200001 0
-0.091980703 0.20252632 0.96199995 0
-0.086952984 0.20176561 0.96240008 0
-0.083715789 0.20041053 0.96399999 0
-0.091136843 0.20590174 0.96200001 0
-0.088605262 0.20505789 0.96200001 0
-0.083542109 0.20674561 0.96200001 0
-0.081854388 0.21855965 0.96200001 0
0.35938597 0.21901403 0.96399999 8.3847198e-39
0.36276841 0.21901403 0.96399999 7.924099e-39
0.36784208 0.21816842 0.96399993 6.5429722e-39
0.37291577 0.21816842 0.96399993 5.9880104e-39
0.37750629 0.21756442 0.96399987 6.0820067e-39
0.35374853 0.22352397 0.96399999 9.2145029e-39
0.3577233 0.22274736 0.9634285 8.6620312e-39
0.36243472 0.22219065 0.96311104 8.0159415e-39
0.36741772 0.222139 0.96288884 6.6348049e-39
0.3729158 0.22239648 0.96399987 5.8947329e-39
0.37798947 0.22239648 0.96399987 6.4500731e-39
0.35262105 0.22747016 0.96399987 9.5847246e-39
0.35703471 0.22705027 0.96222222 9.1222891e-39
0.36201578 0.22699825 0.96200001 8.3850841e-39
0.36707893 0.22699825 0.96200001 6.6355378e-39
0.37222847 0.22705027 0.96222222 5.435917e-39
0.37790272 0.22741733 0.96377766 6.6362609e-39
0.38306317 0.22747016 0.96399987 7.6504114e-39
0.38862005 0.22771177 0.96399987 7.5581989e-39
0.39296892 0.22795339 0.96399987 6.6358727e-39
0.39794594 0.22848491 0.96399993 3.1338933e-39
0.35262102 0.23254387 0.96399987 1.0045696e-38
0.35695267 0.23206145 0.96200001 9.8598597e-39
0.36145326 0.23149885 0.96199995 8.6627683e-39
0.36539122 0.2303737 0.96200001 7.0972432e-39
0.37281722 0.23138633 0.96200001 6.1734834e-39
0.37772927 0.23238304 0.96333325 7.0046846e-39
0.38306317 0.23254387 0.96399987 7.9266437e-39
0.3881368 0.23254384 0.96399987 8.2035838e-39
0.39302886 0.23243587 0.96355546 7.6500288e-39
0.39828423 0.23254384 0.96399987 5.1578896e-39
0.40251228 0.23254384 0.96399993 6.4356594e-40
0.40645787 0.23278539 0.96266669 1.4489426e-42
0.35262102 0.23761752 0.96399987 9.1248254e-39
0.35647044 0.23688348 0.96199995 8.9382691e-39
0.36032808 0.23543684 0.96200001 8.9382747e-39
0.37382984 0.23712456 0.96200007 6.2664049e-39
0.37755498 0.23734325 0.96288884 6.8210179e-39
0.38306317 0.23761752 0.96399987 7.8351768e-39
0.38751012 0.23723334 0.96244442 8.4794672e-39
0.39239475 0.23712458 0.96200001 8.3876121e-39
0.39745793 0.23712458 0.96200001 6.4504235e-39
0.4023101 0.23733553 0.96199995 2.2101588e-39
0.40705636 0.23739673 0.96224999 9.3287241e-41
0.4126474 0.23796843 0.96199995 9.4377452e-41
-0.073568419 0.24438246 0.96399999 0
0.35431227 0.24269122 0.96399999 7.5593158e-39
0.35526493 0.2405 0.96200001 7.6500667e-39
0.37262431 0.24194662 0.96199995 5.896912e-39
0.37772924 0.2425234 0.96333325 7.0050518e-39
0.38279825 0.24252221 0.96333325 7.8348054e-39
0.38733158 0.24218771 0.96200001 8.2032334e-39
0.39239475 0.24218771 0.96200001 8.1117511e-39
0.39697567 0.24194662 0.96199995 7.3741776e-39
0.40758419 0.24218771 0.96200001 3.7134409e-43
0.41216516 0.24194662 0.96199995 3.7554799e-43
0.41602281 0.2405 0.96200001 2.8025969e-45
-0.073415793 0.24725087 0.96200007 0
0.37382984 0.24556315 0.96200001 5.8068757e-39
0.37741622 0.24703991 0.96199995 6.2667651e-39
0.38226843 0.24725087 0.96200001 6.7277334e-39
0.3873316 0.24725087 0.96200001 7.0965131e-39
0.39112896 0.24682894 0.96200001 7.3741762e-39
0.40927193 0.24725087 0.96200007 7.0064923e-45
0.41228774 0.24732482 0.9622857 7.0064923e-45
0.41519648 0.24945614 0.96399999 0
0.50430787 0.24835175 0.963 0
0.50821406 0.24861054 0.96399993 0
0.5115965 0.24945614 0.96399999 0
0.38311228 0.25062633 0.96200001 5.7107144e-39
0.38648772 0.25062633 0.96200001 5.6185286e-39
0.40927193 0.25231403 0.96200007 5.6051939e-45
0.41231966 0.25239617 0.96359998 2.8025969e-45
0.41659823 0.25153628 0.96333331 5.6051939e-45
0.50378424 0.25062633 0.96200001 0
0.50794363 0.25222182 0.96257132 0
0.5126965 0.25254601 0.96288884 7.0064923e-45
0.51713228 0.25307125 0.96359998 1.2611686e-44
0.52005267 0.2545298 0.96399999 1.2922466e-39
0.52597189 0.2545298 0.96399999 1.908918e-38
0.40927193 0.25653332 0.96200001 2.1215953e-39
0.43458772 0.25906491 0.96200001 2.8598848e-39
0.43711931 0.25906491 0.96200001 1.9411501e-39
0.50715965 0.25737718 0.96200001 5.6051939e-45
0.51222283 0.25737718 0.96200001 2.2420775e-44
0.517075 0.25758815 0.96199995 5.3531283e-39
0.52262926 0.25741792 0.96355546 1.7244904e-38
0.52552515 0.25755671 0.96266669 1.8812956e-38
0.43205613 0.26075262 0.96200001 2.859882e-39
0.43787575 0.26176813 0.96366662 1.9408026e-39
0.44264209 0.26186931 0.963 1.5723872e-39
0.44563857 0.26129472 0.96399999 1.3858211e-39
0.50715965 0.26244035 0.96200001 5.0811082e-42
0.5126965 0.26268402 0.96288884 5.4532763e-39
0.51711053 0.26235613 0.96257144 1.595923e-38
0.52132106 0.26256314 0.96399999 1.9090274e-38
0.52512634 0.26129472 0.96399999 1.8997688e-38
0.49468422 0.26636842 0.96399999 5.5403698e-39
0.49737659 0.266 0.96266669 5.7222499e-39
0.50277847 0.26806447 0.96249998 1.1533809e-38
0.50727719 0.2675657 0.96222222 1.6053923e-38
0.51307631 0.26805964 0.96399987 1.8538528e-38
0.51751578 0.26721403 0.96399999 1.8720396e-38
0.52005267 0.26636842 0.96399999 1.8905516e-38
0.50751227 0.2710667 0.96266669 1.8722565e-38
0.51328772 0.27144212 0.96399999 1.8537074e-38
0.4433836 0.27933452 0.96399999 8.4020833e-39
0.44563857 0.27905262 0.96399999 6.2844621e-39
0.45800468 0.27914095 0.96333331 1.4207897e-38
0.46320805 0.27860051 0.96285713 1.5865255e-38
0.46749824 0.27762982 0.96200001 1.5494667e-38
0.47205511 0.27695474 0.96200001 9.3225556e-39
0.44310176 0.28243509 0.96399999 1.2457619e-38
0.44823319 0.28310436 0.96339989 1.245655e-38
0.45315266 0.282693 0.96200001 1.2548022e-38
0.45821577 0.282693 0.96200001 1.2363628e-38
0.46279675 0.2829341 0.96199995 1.2086676e-38
0.46749824 0.2843807 0.96200001 1.08885e-38
0.47002983 0.2843807 0.96200001 1.1165435e-38
0.44939911 0.28636578 0.963 1.0979612e-38
0.45293507 0.28731054 0.96333331 1.0980338e-38
0.45784649 0.28721139 0.963 1.0795575e-38
0.46291485 0.28721142 0.963 1.1072534e-38
0.46757403 0.28744 0.96319997 1.0798106e-38
0.47157544 0.28720069 0.96240008 1.1442367e-38
0.47593683 0.2886 0.96200001 9.9683048e-39
0.48268777 0.2886 0.96200001 4.7210138e-39
0.45240346 0.29004559 0.96399999 1.0336766e-38
0.45747721 0.29004559 0.96399999 1.0983206e-38
0.47354388 0.29004559 0.96399999 1.0705877e-38
0.47720262 0.29155353 0.96200001 9.5083916e-39
0.48015612 0.29197544 0.96200001 9.0481309e-39
0.50547194 0.35188949 0.96200001 1.3279411e-38
0.48927197 0.35744619 0.96333331 4.5262571e-39
0.49121401 0.35690087 0.96299994 4.8060796e-39
0.50547194 0.35779649 0.96200001 7.5636486e-39
0.48859477 0.36117196 0.96200001 4.7106414e-39
0.49028245 0.36032808 0.96200001 5.8119554e-39
0.5274123 0.38058069 0.96200001 3.1224181e-39
0.34353948 -0.35032544 0.96700001 0
0.34727174 -0.35100406 0.96700001 0
0.35032544 -0.35032544 0.96700001 3.657389e-43
0.33760175 -0.34693244 0.96700001 0
0.34184301 -0.34862897 0.96700001 0
0.34693244 -0.34862897 0.96700001 0
0.3511737 -0.3477807 0.96700001 1.8062737e-42
0.33590525 -0.34184301 0.96700001 0
0.33336052 -0.33844998 0.96700001 0
0.32487807 -0.33166406 0.96700001 0
0.32233334 -0.32827106 0.96700001 0
0.31894034 -0.32318157 0.96700001 0
0.31300262 -0.31724387 0.96700001 0
0.31639564 -0.3197886 0.96700001 0
0.3083373 -0.31342673 0.96700001 0
0.30452019 -0.30621666 0.96700001 0
0.30621666 -0.30960965 0.96700001 0
0.2994307 -0.3011272 0.96700001 0
0.30239958 -0.30324781 0.96700001 0
0.2977342 -0.29603773 0.96700001 0
0.3808623 -0.29603773 0.96700001 0
0.2977342 -0.29264474 0.96700001 0
0.29858243 -0.28840351 0.96700001 0
0.30282369 -0.28755525 0.96700001 0
0.30791315 -0.28755525 0.96700001 0
0.31215438 -0.28755525 0.96700001 0
0.31809211 -0.28755525 0.96700001 7.1746481e-43
0.3240298 -0.28585878 0.96700001 3.657389e-43
0.32827106 -0.28585878 0.96700001 1.4012985e-45
0.33675352 -0.28585878 0.96700001 2.8591589e-39
0.34099475 -0.28585878 0.96700001 1.4587517e-42
0.38934475 -0.28585878 0.96700001 0
0.34353948 -0.28416228 0.96700001 7.3756504e-40
0.34608421 -0.28331405 0.96700001 1.8583039e-40
0.35202193 -0.28076932 0.96700001 0
0.35745072 -0.27839419 0.96700001 7.300765e-43
0.36220089 -0.27652806 0.96700001 3.716762e-40
0.36559385 -0.27567983 0.96700001 4.635187e-40
0.38934475 -0.27567983 0.96700001 3.7202933e-40
0.39104122 -0.27567983 0.96700001 4.6422496e-40
0.41309562 -0.27907279 0.96700001 5.0852295e-39
0.36729035 -0.27398333 0.96700001 4.635145e-40
0.37237981 -0.27398333 0.96700001 3.7202933e-40
0.3778086 -0.27194756 0.96700001 6.4790296e-40
0.38255882 -0.2714386 0.96700001 5.5570172e-40
0.38595176 -0.2714386 0.96700001 3.7058039e-40
0.39225301 -0.27204448 0.96700001 4.6422636e-40
0.41394386 -0.27228683 0.96700001 1.0156191e-39
0.41750652 -0.27228686 0.96700001 1.7539086e-39
0.42157808 -0.27228686 0.96700001 1.4012985e-45
0.38425529 -0.26889387 0.96700001 4.6457528e-40
0.38798755 -0.26821524 0.96700001 9.5080903e-41
0.39273772 -0.2680456 0.96700001 4.6278582e-40
0.41330767 -0.26740941 0.96700001 8.3265295e-40
0.41648862 -0.26719737 0.96700001 8.3229562e-40
0.41394386 -0.26295614 0.96700001 1.109244e-39
0.41648862 -0.26295614 0.96700001 1.1088895e-39
0.42666754 -0.26041141 0.96700001 0
-0.3511737 0.023750877 0.96700001 1.5774417e-39
-0.3528702 0.027992107 0.96700001 2.8774263e-40
-0.34862897 0.029688597 0.96700001 3.7036417e-39
-0.34099475 0.029688597 0.96700001 3.3251383e-39
-0.33675349 0.028840352 0.96700001 2.8978852e-42
-0.33166406 0.028840352 0.96700001 1.4012985e-44
-0.35371843 0.032233335 0.96700001 1.8485579e-39
-0.34693244 0.03138509 0.96700001 4.7127545e-39
-0.34184298 0.03138509 0.96700001 3.0485514e-39
-0.33166406 0.032233335 0.96700001 9.5436833e-41
-0.35371843 0.039019302 0.96700001 4.2038954e-45
-0.33166406 0.037322808 0.96700001 1.0148918e-39
-0.3554149 0.044108775 0.96700001 0
-0.32911932 0.044957019 0.96700001 1.4012985e-45
-0.32657456 0.046653509 0.96700001 0
-0.32318157 0.048350003 0.96700001 1.1210388e-44
-0.31843141 0.047671404 0.96700001 1.8202867e-42
-0.31385088 0.048350003 0.96700001 4.6422496e-40
-0.35711142 0.050046492 0.96700001 1.5673257e-39
-0.24514298 0.057680704 0.96700001 0
-0.24175 0.057317171 0.96700001 4.2038954e-45
-0.23750877 0.057680704 0.96700001 2.8025969e-45
-0.23326755 0.056832459 0.96700001 0
-0.24090175 0.060225442 0.96700001 1.4012985e-45
-0.23835702 0.061073687 0.96700001 4.2038954e-45
-0.12978157 0.08906579 0.96700001 2.2155818e-39
-0.12978157 0.091610529 0.96700001 1.1210388e-44
-0.2400535 0.10433421 0.96700001 0
-0.23835702 0.10433421 0.96700001 0
-0.1071617 0.10320321 0.96700001 1.5414283e-44
-0.10263772 0.10348596 0.96700001 2.8025969e-44
-0.099244736 0.10433421 0.96700001 9.8090893e-45
-0.10645483 0.10730308 0.96700001 1.4012985e-45
-0.10348596 0.10942369 0.96700001 7.0064923e-45
-0.097548246 0.1082927 0.96700001 9.2209643e-41
-0.22139211 0.11281667 0.96700001 0
-0.21833842 0.11179878 0.96700001 7.4408948e-43
-0.21290965 0.11168567 0.96700001 7.286752e-43
-0.20782018 0.11281667 0.96700001 6.4683236e-40
-0.20442718 0.11366491 0.96700001 9.8090893e-45
-0.19594474 0.11451316 0.96700001 1.5414283e-44
-0.10150673 0.11281666 0.96700001 3.685415e-43
-0.061921928 0.11451316 0.96700001 3.6889434e-39
-0.2017128 0.11756684 0.96700001 1.0860063e-42
-0.19764124 0.11790613 0.96700001 3.695154e-40
-0.19255175 0.11790613 0.96700001 8.4077908e-45
-0.18703817 0.11663377 0.96700001 8.4077908e-45
-0.18279693 0.11748202 0.96700001 1.2611686e-44
-0.17728333 0.11960264 0.96700001 2.2420775e-44
-0.17219384 0.11960264 0.96700001 1.8230893e-42
-0.16710439 0.1191785 0.96700001 1.2025117e-39
-0.1637114 0.11960264 0.96700001 1.8471594e-39
-0.10094123 0.11620965 0.96700001 3.7835059e-43
-0.098820612 0.11833026 0.96700001 2.8025969e-45
-0.067011409 0.11620965 0.96700001 3.2322659e-39
-0.061497811 0.11663377 0.96700001 3.9676855e-39
-0.057171755 0.11892404 0.96700001 4.3375316e-39
-0.052591231 0.11960264 0.96700001 4.0609405e-39
-0.17558685 0.12129913 0.96700001 0
-0.17219384 0.12129913 0.96700001 1.2611686e-44
-0.16710439 0.12129913 0.96700001 1.4629556e-42
-0.16159078 0.12172325 0.96700001 7.3975106e-40
-0.15805642 0.12243012 0.96700001 1.3869099e-39
-0.15268421 0.1246921 0.96700001 1.0181358e-39
-0.097208947 0.12197772 0.96700001 1.2354915e-38
-0.094155259 0.12384386 0.96700001 1.355277e-38
-0.055814564 0.12265632 0.96700001 4.3346323e-39
-0.051742982 0.12299562 0.96700001 2.9556762e-39
-0.047671407 0.12333491 0.96700001 4.1527942e-39
-0.044957019 0.12299562 0.96700001 4.427949e-39
-0.1467465 0.12638859 0.96700001 1.296159e-39
-0.14335351 0.12638859 0.96700001 1.8482706e-39
-0.13656753 0.12808509 0.96700001 2.2170518e-39
-0.13317457 0.12808509 0.96700001 2.125575e-39
-0.12808509 0.12808509 0.96700001 2.5851126e-39
-0.12265632 0.12740651 0.96700001 2.7702227e-39
-0.11790613 0.12808509 0.96700001 2.3095977e-39
-0.11324079 0.12935746 0.96700001 1.9379678e-39
-0.16625614 0.13232632 0.96700001 3.5037646e-39
-0.11196842 0.13147807 0.96700001 4.7909456e-39
-0.10857544 0.13147807 0.96700001 1.0504542e-38
-0.1073879 0.1616756 0.96700001 5.7164934e-39
-0.10297702 0.16099702 0.96700001 7.0108013e-39
-0.097124122 0.1620149 0.96700001 1.7241316e-38
-0.094155259 0.16286317 0.96700001 1.6873593e-38
-0.095851757 0.1654079 0.96700001 1.5313498e-38
-0.092670836 0.16731644 0.96700001 1.2264184e-38
-0.08906579 0.16880088 0.96700001 1.447366e-38
-0.10094122 0.17219384 0.96700001 8.2940754e-40
-0.098032959 0.17243622 0.96700001 1.8439406e-40
-0.091780178 0.17287245 0.96700001 2.6624671e-44
-0.087369293 0.17219387 0.96700001 3.9658708e-39
-0.096982747 0.17671783 0.96700001 9.2197031e-41
-0.092034653 0.17601098 0.96700001 1.4012985e-45
-0.0873693 0.1764351 0.96700001 7.2447131e-43
-0.083976313 0.17643508 0.96700001 8.4077908e-45
0.36898685 0.21460614 0.96700001 6.173845e-39
0.37068334 0.21460614 0.96700001 5.9876545e-39
0.3774693 0.21290964 0.96700001 5.6195838e-39
0.38234675 0.21269758 0.96700001 5.2518677e-39
0.35880789 0.21969561 0.96700001 8.386889e-39
0.36220089 0.21799912 0.96700001 7.7404308e-39
0.36686623 0.21672675 0.96700001 6.9121093e-39
0.37237987 0.21630263 0.96700001 6.0798515e-39
0.37577283 0.21630263 0.96700001 6.0798515e-39
0.38277084 0.21778706 0.96700001 6.3592928e-39
0.38722414 0.2192715 0.96700001 6.1734652e-39
0.39273772 0.21969561 0.96700001 4.2362794e-39
0.35795966 0.22139211 0.96700001 8.5694894e-39
0.38340703 0.22308861 0.96700001 7.2801981e-39
0.38764825 0.22308861 0.96700001 6.9117603e-39
0.39273772 0.22308861 0.96700001 5.6192068e-39
0.39803925 0.22330067 0.96700001 1.5644404e-39
0.40122017 0.22393686 0.96700001 1.8367099e-40
0.38764825 0.22732982 0.96700001 7.9266213e-39
0.39443421 0.22648157 0.96700001 5.9883453e-39
0.39782718 0.22648157 0.96700001 3.5916373e-39
0.40312871 0.22796601 0.96700001 3.6806365e-40
0.40630963 0.22817807 0.96700001 1.0130715e-39
0.40800616 0.23157103 0.96700001 2.7839456e-40
0.35168263 0.24242859 0.96700001 8.850042e-39
0.3554149 0.24175 0.96700001 8.0188562e-39
0.35032544 0.24514298 0.96700001 9.033357e-39
0.51403689 0.24853598 0.96700001 0
0.51658154 0.24853598 0.96700001 0
0.41733685 0.25362545 0.96700001 8.4077908e-45
0.51488513 0.25023246 0.96700001 0
0.51870221 0.25065657 0.96700001 2.6624671e-44
0.52251929 0.25277722 0.96700001 6.4598332e-39
0.52760875 0.25362545 0.96700001 1.7804209e-38
0.41394386 0.25617015 0.96700001 7.3758326e-40
0.42327455 0.25701842 0.96700001 2.7554292e-40
0.52336752 0.25532192 0.96700001 1.7339198e-38
0.52506405 0.25532192 0.96700001 1.8722132e-38
0.4334535 0.26380441 0.96700001 7.3939513e-40
0.43599826 0.26380441 0.96700001 1.0166897e-39
0.44193596 0.26380441 0.96700001 1.2061214e-39
0.44702542 0.26380441 0.96700001 2.1255512e-39
0.52336752 0.26380441 0.96700001 1.8629281e-38
0.52506405 0.26380441 0.96700001 1.8905869e-38
0.43684649 0.26550087 0.96700001 8.3229982e-40
0.44108772 0.26550087 0.96700001 1.2936353e-39
0.51658154 0.26889387 0.96700001 1.9089534e-38
0.52336752 0.26550087 0.96700001 1.9457947e-38
0.52506405 0.26550087 0.96700001 1.9365751e-38
0.51827806 0.27059034 0.96700001 1.8261221e-38
0.43769473 0.27907279 0.96700001 8.2105048e-39
0.4423601 0.27864867 0.96700001 2.7752618e-39
0.44532895 0.27737632 0.96700001 5.0797069e-42
0.46823156 0.27737632 0.96700001 1.6233293e-38
0.43769473 0.28076932 0.96700001 1.282496e-38
0.44108772 0.28246579 0.96700001 1.3746201e-38
0.44872195 0.28161755 0.96700001 1.4206836e-38
0.4423601 0.2862829 0.96700001 1.2548018e-38
0.44702542 0.28727251 0.96700001 1.1348397e-38
0.45041841 0.28925177 0.96700001 1.0979604e-38
0.45253903 0.29264474 0.96700001 1.0520435e-38
0.45686507 0.29332334 0.96700001 1.0889214e-38
0.46229386 0.29151374 0.96700001 1.162606e-38
0.4673833 0.29094824 0.96700001 1.098285e-38
0.47162455 0.29094824 0.96700001 1.153565e-38
0.47586581 0.29264474 0.96700001 9.4154981e-39
0.34311053 -0.35591316 0.97299999 0
0.34737805 -0.35591316 0.97299999 0
0.35164562 -0.35591316 0.97299999 7.0064923e-45
0.33849296 -0.35156783 0.97199994 0
0.34222767 -0.35272881 0.97050005 0
0.34630704 -0.35311407 0.97000003 0
0.35327485 -0.35327312 0.97200006 2.1579996e-42
0.33701023 -0.34836754 0.97100002 0
0.35311407 -0.34971055 0.97000003 2.1664074e-42
0.33587399 -0.34325528 0.97100002 0
0.32689387 -0.33542895 0.97299999 0
0.32371464 -0.33167195 0.97200006 0
0.32843861 -0.33439475 0.97000003 0
0.31835878 -0.32518682 0.97299999 0
0.32091931 -0.32774734 0.97299999 0
0.31409121 -0.32091931 0.97299999 0
0.31737718 -0.32248247 0.97000003 0
0.30897018 -0.31750524 0.97299999 0
0.31227195 -0.31822807 0.97000003 0
0.30413362 -0.3120997 0.97299999 0
0.30671352 -0.31319386 0.97180003 0
0.3024306 -0.3079738 0.97187507 0
0.30546492 -0.30886844 0.97000003 0
0.29809836 -0.30248556 0.97214288 0
0.30035964 -0.30376315 0.97000003 0
0.29275349 -0.29616752 0.97299999 0
0.29699248 -0.29772481 0.97171432 0
0.28820145 -0.2921845 0.97299999 0
0.29235351 -0.29235348 0.97166663 0
0.29656184 -0.29230219 0.97149998 0
0.28357258 -0.28698531 0.97225004 0
0.28743595 -0.28743657 0.97233337 0
0.29185089 -0.28674561 0.97000015 0
0.29726166 -0.28704125 0.97099996 0
0.30206141 -0.28589472 0.97000009 0
0.30716667 -0.28589472 0.97000009 0
0.31243378 -0.28604165 0.97050005 4.2038954e-45
0.31737718 -0.28589475 0.97000009 5.6051939e-45
0.32234159 -0.28590086 0.97060001 4.2038954e-45
0.32758775 -0.28504387 0.97000003 0
0.33269298 -0.28504387 0.97000003 1.5705543e-39
0.33779827 -0.28504387 0.97000003 3.0439201e-39
0.34205264 -0.28504387 0.97000003 1.4727647e-42
0.40927196 -0.28589475 0.97000003 2.3189962e-39
0.4109737 -0.28504387 0.97000003 3.1545148e-39
0.28321886 -0.28236535 0.97250003 0
0.28743598 -0.28231668 0.97233325 0
0.2924526 -0.28221929 0.972 0
0.29767048 -0.28231665 0.97233337 0
0.30278859 -0.28231665 0.97233337 0
0.30766645 -0.28250572 0.97224998 0
0.31289631 -0.28353563 0.97299993 1.4012985e-45
0.31750524 -0.28336492 0.97299999 1.4012985e-45
0.32228762 -0.28304198 0.97262496 0
0.32712513 -0.28221929 0.972 2.8025969e-45
0.3319717 -0.28207895 0.97225004 5.5462693e-40
0.33713597 -0.28251138 0.97299999 2.7691087e-39
0.3423858 -0.28250685 0.97240001 1.4769476e-39
0.34700766 -0.28176907 0.97128576 8.2976487e-40
0.39225438 -0.28164038 0.97000003 0
0.41196111 -0.28231725 0.97233337 2.1244932e-39
0.28677896 -0.27909738 0.97299999 0
0.29275349 -0.27909738 0.97299999 0
0.29787454 -0.27909738 0.97299999 0
0.30214208 -0.27909738 0.97299999 0
0.32689384 -0.27909738 0.97299999 0
0.33201492 -0.27909738 0.97299999 2.9427268e-44
0.33713594 -0.27909738 0.97299999 2.4006961e-39
0.34225702 -0.27909738 0.97299999 2.4929114e-39
0.34837845 -0.27897096 0.97171432 7.3865525e-40
0.35296118 -0.27771407 0.97138464 2.7839597e-40
0.35745147 -0.2765348 0.97100002 1.8440107e-40
0.39282164 -0.27823684 0.97000003 7.4080904e-40
0.39688158 -0.27739033 0.97299999 5.5606186e-40
0.4020026 -0.27568334 0.97299999 9.5442438e-41
0.40755045 -0.27611008 0.97299999 2.5279424e-42
0.41250053 -0.27756017 0.97240001 2.7913445e-40
0.35420614 -0.27397633 0.97299999 1.0163422e-39
0.35820016 -0.27431911 0.97180003 3.6914546e-40
0.36290866 -0.27373344 0.97214288 1.084605e-42
0.36735761 -0.27246287 0.97166675 2.7947637e-40
0.37221667 -0.27170789 0.97100002 4.6350609e-40
0.37614965 -0.27193704 0.97060001 7.3937271e-40
0.3973597 -0.27284798 0.97000009 4.635145e-40
0.40277892 -0.27244282 0.97240001 9.5079502e-41
0.40743062 -0.27288094 0.97257143 2.5223372e-42
0.41196373 -0.27312952 0.97100002 1.0860063e-42
0.41948247 -0.27142984 0.97000003 2.5265411e-42
0.42268771 -0.27099606 0.97150004 1.858416e-40
0.36956927 -0.26885524 0.97299999 3.7237825e-40
0.37298334 -0.26885524 0.97299999 5.5641919e-40
0.37802565 -0.26843333 0.97224998 5.5642059e-40
0.38304168 -0.26826358 0.9720999 4.6422496e-40
0.38734561 -0.26679373 0.97171432 6.4717288e-40
0.39225438 -0.26632458 0.97000003 6.4501628e-40
0.39766625 -0.26738006 0.97075009 4.6170402e-40
0.40247932 -0.26737145 0.97174996 9.4357833e-41
0.40757021 -0.26802635 0.97000015 1.8656187e-40
0.41139913 -0.26760089 0.97000003 4.6422075e-40
0.41948247 -0.26802632 0.97000003 5.5677091e-40
0.42226231 -0.26630834 0.97150004 1.8691079e-40
0.42794928 -0.26612407 0.97299993 1.4012985e-45
0.43102193 -0.26544124 0.97299999 0
0.38794565 -0.26403043 0.97200006 1.1056357e-39
0.392216 -0.26387119 0.97171438 8.2940894e-40
0.39688158 -0.26288071 0.97299999 8.3048654e-40
0.40231177 -0.26312956 0.97257143 1.1067175e-39
0.40739197 -0.26269495 0.97207677 8.3229141e-40
0.41216981 -0.26204923 0.97136366 9.2484437e-40
0.41805056 -0.2615203 0.97112501 1.108514e-39
0.42288598 -0.26121932 0.97000003 9.3637566e-41
0.42723283 -0.26274332 0.97060001 0
0.43139476 -0.26292107 0.97000003 0
0.41815591 -0.2577669 0.97257137 1.1088797e-39
0.42173374 -0.25755897 0.97225004 1.0166855e-39
0.43358245 -0.25519913 0.97299999 1.4012985e-45
-0.3514123 0.028078949 0.97000003 6.5832722e-40
-0.33694738 0.029780703 0.97000003 7.300765e-43
-0.33439475 0.028929826 0.97000003 4.2038954e-45
-0.35262632 0.033220176 0.97100002 1.4801439e-39
-0.34843424 0.032758772 0.97000003 1.2053787e-39
-0.34251562 0.032905437 0.97180003 1.7538694e-39
-0.33764037 0.03268538 0.97200006 1.9618179e-44
-0.3338275 0.033184215 0.97000003 9.2552961e-41
-0.35262632 0.038327191 0.97100002 3.629363e-43
-0.33599794 0.037838887 0.97299999 5.6051939e-45
-0.35384035 0.042631578 0.97200006 7.3721051e-40
-0.33628243 0.040114913 0.97299999 0
-0.33372194 0.040114913 0.97299999 1.821688e-44
-0.35631609 0.047982749 0.97100002 0
-0.3541086 0.04586193 0.97180003 1.8477522e-40
-0.33209804 0.046835743 0.97075003 9.8090893e-45
-0.32872224 0.047932748 0.97000003 0
-0.31142104 0.048500001 0.97000003 9.2413672e-40
-0.30886844 0.048500001 0.97000003 1.0152856e-39
-0.35801959 0.051955264 0.97100002 4.6086899e-39
-0.33116141 0.050357018 0.97299999 2.8025969e-45
-0.32635087 0.051691581 0.97240001 5.6051939e-45
-0.3221283 0.051985744 0.97150004 1.5414283e-44
-0.31753191 0.051752299 0.97112513 7.3708299e-43
-0.3127006 0.051976606 0.97133327 9.4377452e-41
-0.30811667 0.052064035 0.97299999 1.8622556e-40
-0.3025285 0.052837282 0.9715001 1.2918486e-39
-0.29958159 0.053771053 0.97299999 9.2484297e-40
-0.35821933 0.05530702 0.97000003 6.2695901e-39
-0.31665173 0.056331579 0.97299999 2.1019477e-44
-0.31494474 0.056331579 0.97299999 2.2420775e-44
-0.3038491 0.05547807 0.97299999 3.9236357e-44
-0.23569299 0.058710527 0.97000003 4.2038954e-45
-0.23186404 0.058285087 0.97000003 1.4012985e-45
-0.23654386 0.061263159 0.97000003 4.2038954e-45
-0.23366344 0.061041813 0.97100002 1.4012985e-44
-0.10635965 0.1046579 0.97000003 1.2611686e-44
-0.10396623 0.10481973 0.97150004 2.1019477e-44
-0.10271304 0.10757519 0.97000015 4.2038954e-45
-0.099552631 0.10891229 0.97000003 1.2611686e-44
-0.21612281 0.11401755 0.97000003 3.671402e-43
-0.21229386 0.11444298 0.97000003 1.4517452e-42
-0.20761403 0.11486842 0.97000003 2.7912464e-40
-0.10125439 0.11146491 0.97000003 5.6051939e-45
-0.097917542 0.11324327 0.97066677 1.3822184e-39
-0.093234591 0.11297821 0.97257143 1.7524583e-39
-0.2174228 0.11624151 0.97200006 0
-0.21160549 0.11708706 0.97075003 7.2307001e-43
-0.20729518 0.11772412 0.97250003 1.0874076e-42
-0.18804386 0.11912282 0.97000003 7.0064923e-45
-0.18293859 0.11997369 0.97000003 1.4012985e-45
-0.096829824 0.11793158 0.97000009 8.4077908e-45
-0.093598418 0.11712684 0.97180003 4.3335197e-39
-0.066368423 0.11912281 0.97000003 1.9618179e-44
-0.062454391 0.11929299 0.97000009 1.8453994e-39
-0.20825614 0.12034474 0.97299999 8.4077908e-45
-0.19655263 0.12167545 0.97000003 3.0828566e-44
-0.19244495 0.12219431 0.97075009 1.5414283e-44
-0.18781984 0.12277176 0.97060001 7.4268819e-43
-0.18293859 0.12252633 0.97000009 2.8025969e-45
-0.17839265 0.12284913 0.97119999 5.6051939e-45
-0.1729079 0.1235044 0.97100002 5.6051939e-45
-0.1676228 0.12295176 0.97000003 2.3822074e-44
-0.16336843 0.1233772 0.97000003 1.8586262e-40
-0.094593421 0.12101009 0.97150004 4.5194146e-39
-0.065517545 0.12167545 0.97000003 1.4931045e-38
-0.061773688 0.12235614 0.97000009 5.6278893e-39
-0.058710527 0.12252633 0.97000003 4.5207948e-39
-0.19314913 0.12507895 0.97000003 0
-0.18761842 0.12550439 0.97000003 7.0064923e-45
-0.18222655 0.12645394 0.97075009 5.6051939e-45
-0.1778163 0.12687369 0.97257143 3.685415e-43
-0.17320351 0.12712865 0.97266662 3.7134409e-43
-0.16796902 0.1270421 0.972 2.8025969e-45
-0.16291875 0.12671632 0.97112513 1.1210388e-44
-0.15741229 0.12507895 0.97000003 9.330686e-41
-0.14239123 0.12874736 0.97199994 1.5709593e-39
-0.13869299 0.12848246 0.97000003 1.8482706e-39
-0.05530702 0.1267807 0.97000003 3.1367842e-39
-0.051903512 0.1267807 0.97000003 2.8165959e-40
-0.047649123 0.1267807 0.97000003 2.9549895e-39
-0.17667632 0.13058685 0.97299999 5.341974e-39
-0.1729079 0.13031842 0.97100002 3.1321291e-39
-0.1676228 0.13018422 0.97000003 2.1019477e-44
-0.16387369 0.13229387 0.97299999 3.695126e-40
-0.14082895 0.13058685 0.97299999 1.0199309e-39
-0.13698815 0.1310136 0.97299999 1.5723858e-39
-0.13272062 0.1310136 0.97299999 1.5716809e-39
-0.12659612 0.13102809 0.97119999 2.4007213e-39
-0.1227158 0.13123904 0.97150004 2.6758705e-39
-0.1169307 0.13229387 0.97299999 5.8108624e-39
-0.11180965 0.13400088 0.97299999 3.4090873e-39
-0.10806141 0.13358773 0.97000003 1.262829e-38
-0.10380702 0.13358773 0.97000003 1.5304099e-38
-0.16387369 0.13656139 0.97299999 1.3847323e-39
-0.11095614 0.1357079 0.97299999 2.4046085e-39
-0.10737763 0.1354987 0.97150004 1.631755e-38
-0.1046579 0.13528949 0.97000003 1.5306267e-38
-0.10635965 0.16081579 0.97000003 1.0234762e-38
-0.09104386 0.16592106 0.97000003 1.8254732e-38
-0.087980703 0.16796318 0.97000009 1.8348022e-38
-0.08449737 0.16984823 0.97299999 1.9268906e-38
-0.096149124 0.17187721 0.97000003 0
-0.083428502 0.17281799 0.97050005 8.4806023e-39
0.37853116 0.20868289 0.97299999 4.6065179e-39
0.38322544 0.20825614 0.97299999 3.6856378e-39
0.38720846 0.20854063 0.97299999 1.5669432e-39
0.39005351 0.20910965 0.97299999 1.2064171e-39
0.36359474 0.2142307 0.97299999 7.5574885e-39
0.36794335 0.21291701 0.97257143 6.912475e-39
0.37196052 0.21194066 0.9703334 5.896898e-39
0.37649 0.21131773 0.97060001 5.4348408e-39
0.38204384 0.21016668 0.97000003 4.6987149e-39
0.38763234 0.21197677 0.97050005 3.5937981e-39
0.39224821 0.21227981 0.97299999 1.8421189e-39
0.39688158 0.2142307 0.97299999 1.2867858e-39
0.35962415 0.2190136 0.97150004 8.386889e-39
0.36236754 0.21656752 0.97200006 7.8330062e-39
0.36658487 0.21586382 0.97075003 7.0968607e-39
0.3735351 0.21527193 0.97000003 5.9876545e-39
0.37523684 0.21527193 0.97000003 5.987639e-39
0.38771641 0.21640645 0.97000009 5.1600378e-39
0.39211479 0.21740779 0.9708572 4.052621e-39
0.39678839 0.21726227 0.97225004 1.287506e-39
0.40175873 0.21813245 0.97299999 3.643376e-43
0.35736844 0.22122808 0.97000003 9.0308221e-39
0.39792693 0.22094445 0.97000003 1.9324985e-39
0.40246493 0.22165352 0.97000003 4.5954042e-40
0.40727252 0.22253507 0.972 6.4503029e-40
