# .PCD v0.7 - Point Cloud Data file format
VERSION 0.7
FIELDS x y z rgb
SIZE 4 4 4 4
TYPE F F F F
COUNT 1 1 1 1
WIDTH 985
HEIGHT 1
VIEWPOINT 0 0 0 1 0 0 0
POINTS 985
DATA ascii
0.45181882 -0.031215349 0.93650007 1.7424977e-38
0.45724201 -0.031872012 0.93650007 1.7241302e-38
0.46210936 -0.031818308 0.93612498 1.714875e-38
0.46779022 -0.031091226 0.93628567 1.6965075e-38
0.47242105 -0.030346492 0.935 1.6688848e-38
0.45336667 -0.028798247 0.93800002 1.7424618e-38
0.45748073 -0.028798247 0.93800002 1.724023e-38
0.46324039 -0.028798247 0.93800002 1.7148035e-38
0.4681772 -0.028798247 0.93800002 1.6965075e-38
0.47395718 -0.027686695 0.9375 1.6504457e-38
0.47791126 -0.026140098 0.93542856 1.6320423e-38
0.48144302 -0.025425438 0.935 1.723986e-38
0.48964474 -0.025425438 0.935 1.0328062e-38
0.49289608 -0.025466228 0.93650001 8.9451467e-39
0.47861707 -0.023300147 0.9375 1.65023e-38
0.48319 -0.022185789 0.9368 1.1616994e-38
0.48737866 -0.02215296 0.93537498 8.3015878e-39
0.49286142 -0.023861403 0.93800002 8.3033842e-39
0.47393686 -0.015633335 0.93800002 9.2228042e-39
0.47640529 -0.015633335 0.93800002 7.5651143e-39
0.48381054 -0.018924562 0.93800002 7.8431334e-39
0.48710179 -0.018924562 0.93800002 8.2129921e-39
0.47393686 -0.013987719 0.93800002 7.9353192e-39
0.47640529 -0.013987719 0.93800002 8.6721724e-39
-0.4607465 -0.090164043 0.94300002 1.7796277e-38
-0.45909211 -0.090164043 0.94300002 1.7520061e-38
-0.45588291 -0.089193419 0.94150001 1.8349458e-38
-0.45293927 -0.088851534 0.94225001 1.8902626e-38
-0.44786143 -0.088414036 0.94199997 1.927033e-38
-0.44268611 -0.087638974 0.94128567 1.9178855e-38
-0.43775645 -0.086669289 0.94099998 1.9363244e-38
-0.43301341 -0.086223945 0.94128567 1.9546557e-38
-0.42780307 -0.085889913 0.94149995 1.9639468e-38
-0.4232091 -0.086027712 0.94119996 1.945472e-38
-0.40914181 -0.086119592 0.94099998 1.9914979e-38
-0.40367019 -0.085200876 0.94300002 2.0007536e-38
-0.43179476 -0.083546497 0.94300002 1.9822782e-38
-0.42104125 -0.083546497 0.94300002 1.9547994e-38
-0.41789258 -0.084238149 0.94150001 1.9546553e-38
-0.41293728 -0.084238164 0.94150001 1.9546195e-38
-0.40794688 -0.084099829 0.9418 1.9822782e-38
-0.40334716 -0.083892331 0.94225001 1.9915338e-38
-0.39800763 -0.083456144 0.94199997 1.9915341e-38
-0.39274651 -0.083603516 0.94179994 2.0099731e-38
-0.3875421 -0.083456136 0.94199997 2.0191922e-38
-0.38287857 -0.082997121 0.94214284 2.0007532e-38
-0.37727544 -0.082250878 0.94171423 1.881079e-38
-0.37301368 -0.081734732 0.94119996 2.1114959e-38
-0.36751536 -0.080934651 0.94149995 2.2867037e-38
-0.36198246 -0.081631579 0.94 2.2314589e-38
-0.37164474 -0.079282895 0.94150001 2.3509886e-38
-0.36768728 -0.078169741 0.94300002 2.3142544e-38
-0.36275262 -0.078498244 0.94199997 2.341805e-38
-0.35795408 -0.07828147 0.94187498 2.341805e-38
-0.35244343 -0.077011399 0.94150001 2.2958873e-38
-0.34750962 -0.076764032 0.94099998 2.2407142e-38
-0.34305337 -0.077294484 0.94171429 2.2222754e-38
-0.33738798 -0.077530824 0.94171429 2.3142544e-38
-0.3320013 -0.077355407 0.94149995 2.1945812e-38
-0.32732517 -0.076315664 0.94128567 2.249826e-38
-0.3222194 -0.076835856 0.94187492 2.3234379e-38
-0.31713551 -0.077631138 0.94150001 2.3234379e-38
-0.31213334 -0.077058144 0.94171429 2.3050708e-38
-0.30750865 -0.076315664 0.94128567 2.3509886e-38
-0.30226973 -0.075979389 0.94150001 2.3509886e-38
-0.29760867 -0.076567873 0.94112498 2.3509886e-38
-0.2923592 -0.075979389 0.94150001 2.3509886e-38
-0.28777194 -0.075584799 0.94 2.2958873e-38
-0.28282455 -0.075035088 0.94 2.3509886e-38
-0.27787718 -0.075859644 0.94 2.341805e-38
-0.27292982 -0.075859651 0.94 2.3509886e-38
-0.26839474 -0.075447366 0.94 2.3509886e-38
-0.26303509 -0.075035088 0.94 2.3509886e-38
-0.25808772 -0.075035088 0.94 2.3509886e-38
-0.25314033 -0.075035088 0.94 2.3509886e-38
-0.24819298 -0.075035088 0.94 2.3509886e-38
-0.19047368 -0.075035088 0.94 2.2403538e-38
-0.18799999 -0.075035088 0.94 2.249609e-38
-0.2961351 -0.073620178 0.94300002 2.3509886e-38
-0.2919991 -0.073620178 0.94300002 2.3509886e-38
-0.28700054 -0.072533861 0.9418 2.3509886e-38
-0.28244868 -0.072675876 0.94150001 2.3509886e-38
-0.2777465 -0.073195621 0.9418 2.3234379e-38
-0.27185702 -0.072163455 0.94199997 2.3509886e-38
-0.26768982 -0.071877964 0.94187498 2.1944006e-38
-0.26276344 -0.0718114 0.94099998 2.0652188e-38
-0.25790176 -0.071836844 0.94133335 1.7793413e-38
-0.25285819 -0.0718114 0.94099998 1.4292133e-38
-0.24838158 -0.072056137 0.94150001 1.0604318e-38
-0.24357545 -0.072396494 0.93999994 4.8871615e-39
-0.23766118 -0.071380481 0.94075 1.1085504e-39
-0.23284018 -0.070792101 0.94060004 3.5070689e-39
-0.22675438 -0.070087716 0.94 4.7970748e-39
-0.221807 -0.070087716 0.94 4.6126934e-39
-0.21709211 -0.071261697 0.94099998 4.520495e-39
-0.21208136 -0.070968196 0.94075 4.520495e-39
-0.20861402 -0.070087716 0.94 4.6126906e-39
-0.19165163 -0.071501255 0.94 1.8163269e-38
-0.18764663 -0.071501255 0.94 2.0928414e-38
-0.26718333 -0.068657018 0.94300002 1.7795896e-38
-0.26222017 -0.068657018 0.94300002 7.3800491e-39
-0.2589114 -0.068657018 0.94300002 2.8607032e-39
-0.22747809 -0.068657018 0.94300002 5.1629861e-39
-0.22251491 -0.068657018 0.94300002 4.6126906e-39
-0.20716353 -0.067951575 0.94239998 4.5197789e-39
-0.20233993 -0.066068865 0.94150001 4.2428361e-39
-0.19242764 -0.067721486 0.94150001 1.2549477e-38
-0.18777281 -0.067829825 0.94300002 1.8256528e-38
-0.18314053 -0.067995265 0.94300002 1.8538516e-38
-0.098122805 -0.065140352 0.94 2.3509886e-38
-0.082456142 -0.065140352 0.94 2.3232578e-38
-0.077571273 -0.065192327 0.94075 2.2955989e-38
-0.071736842 -0.065140352 0.94 2.286379e-38
-0.06843859 -0.065140352 0.94 2.2863067e-38
-0.10690193 -0.062620178 0.9418 2.3509884e-38
-0.10174474 -0.062039476 0.94300002 2.3509884e-38
-0.097917184 -0.062910527 0.94119996 2.3325494e-38
-0.09482456 -0.061842106 0.94 2.341769e-38
-0.087795608 -0.062577069 0.94042861 2.3233296e-38
-0.082651533 -0.063643202 0.94225001 2.3048184e-38
-0.076101758 -0.063693859 0.94300002 2.2955986e-38
-0.071965791 -0.063693859 0.94300002 2.2771955e-38
-0.066416517 -0.062557161 0.94249994 2.2679398e-38
-0.06219627 -0.061782014 0.94224995 2.2678676e-38
-0.05733351 -0.061298769 0.9418 2.2494285e-38
0.1894272 -0.045495614 0.94300002 2.2402459e-38
0.19047368 -0.045350876 0.94 2.2402459e-38
0.19717588 -0.04619956 0.94050002 2.2310261e-38
0.20233993 -0.04624781 0.94149995 2.212515e-38
0.20696492 -0.046175439 0.94 2.1757444e-38
0.21149999 -0.045763157 0.94 2.1664531e-38
0.21685965 -0.045350876 0.94 2.1756728e-38
0.2222193 -0.045763157 0.94 2.0836218e-38
0.22675438 -0.046175439 0.94 2.0377042e-38
0.23244123 -0.045495614 0.94300002 1.9732404e-38
0.1886 -0.042186845 0.94300002 2.2310979e-38
0.19259913 -0.042155847 0.94233334 2.2218784e-38
0.19769911 -0.043841228 0.94300002 2.1941838e-38
0.20348948 -0.043841228 0.94300002 2.1757446e-38
0.20762545 -0.043841228 0.94300002 2.1756368e-38
0.21225043 -0.042944301 0.94150001 2.1295746e-38
0.21720572 -0.042944301 0.94150001 2.1757088e-38
0.2223978 -0.042990789 0.94249994 2.1665616e-38
0.22780895 -0.043179475 0.94300002 2.1389029e-38
0.23244123 -0.043841228 0.94300002 2.0929851e-38
0.30606142 -0.035569299 0.94300002 2.0191211e-38
0.32343248 -0.035569299 0.94300002 2.0007178e-38
0.32591403 -0.035569299 0.94300002 2.0007175e-38
0.33997634 -0.035569299 0.94300002 1.9730231e-38
0.34328508 -0.035569299 0.94300002 1.9914622e-38
0.34791541 -0.036162101 0.94119996 2.0006457e-38
0.35208774 -0.036280699 0.94 2.0006453e-38
0.35703507 -0.03545614 0.94 1.972987e-38
0.37187719 -0.03545614 0.94 1.9545472e-38
0.32343248 -0.033914912 0.94300002 2.0282685e-38
0.32508686 -0.033914912 0.94300002 2.0283039e-38
0.33914912 -0.033914912 0.94300002 1.9822786e-38
0.34493947 -0.033087719 0.94300002 2.0283039e-38
0.34824824 -0.032260526 0.94299996 2.0006094e-38
0.35258657 -0.032201752 0.94133335 1.982206e-38
0.35728776 -0.032179531 0.94066662 1.9913539e-38
0.36211139 -0.032168712 0.94033337 1.9729513e-38
0.36719608 -0.031728446 0.94128573 1.9729153e-38
0.37227282 -0.032190349 0.94099987 1.9637671e-38
0.37673423 -0.031187896 0.94060004 1.9637312e-38
0.38177192 -0.030508772 0.94 1.9175974e-38
0.38671932 -0.030508772 0.94 1.9360365e-38
0.39249122 -0.031333335 0.94 1.9175975e-38
0.39844072 -0.031537194 0.94119996 1.8715002e-38
0.40299001 -0.030897018 0.9418 1.8622803e-38
0.40815791 -0.030508772 0.94 1.843913e-38
0.41145614 -0.030508772 0.94 1.8438773e-38
0.42794737 -0.030508772 0.94 1.8162912e-38
0.3540386 -0.028951755 0.94300002 1.9821703e-38
0.37825045 -0.028905701 0.94150001 1.982206e-38
0.38238111 -0.028078509 0.94149995 1.9452922e-38
0.3873364 -0.028078509 0.94149995 1.9268169e-38
0.39258581 -0.02829 0.94300002 1.9268169e-38
0.39787984 -0.028951755 0.94300002 1.8991589e-38
0.40118858 -0.028951755 0.94300002 1.8714284e-38
0.40874887 -0.028370468 0.94199997 1.8346933e-38
0.41322806 -0.027437065 0.94075 1.825402e-38
0.41794592 -0.027237717 0.94099998 1.8254019e-38
0.4222981 -0.02725219 0.94149995 1.8254739e-38
0.4276588 -0.028951755 0.94300002 1.7977799e-38
0.43310243 -0.028928729 0.94225001 1.8070346e-38
0.43788829 -0.027469626 0.94187498 1.7609731e-38
0.44262868 -0.027266663 0.94199997 1.760973e-38
0.44762358 -0.027252367 0.94149989 1.7517172e-38
0.45261431 -0.026871243 0.94099998 1.7241304e-38
0.45759386 -0.026567191 0.94060004 1.7056912e-38
0.46248993 -0.026426753 0.94150001 1.6965076e-38
0.46744516 -0.026426753 0.94149995 1.6689208e-38
0.47240046 -0.026426753 0.94149995 1.6597013e-38
0.47563595 -0.025642982 0.94300002 1.6412624e-38
0.45412895 -0.023988595 0.94300002 1.6966514e-38
0.45661053 -0.023988595 0.94300002 1.6966154e-38
0.47398162 -0.023988595 0.94300002 1.6320427e-38
0.47675231 -0.022083662 0.94112498 1.604204e-38
0.4807193 -0.020614035 0.94 1.1431182e-38
0.47830805 -0.018351581 0.94239998 1.2446395e-38
0.48122895 -0.018433627 0.94099998 8.4863238e-39
-0.46734738 -0.09064211 0.94800001 1.7243824e-38
-0.46817902 -0.08731579 0.94800007 1.7611526e-38
-0.46208069 -0.088424563 0.94800001 1.7428225e-38
-0.45802334 -0.086761154 0.9471429 1.8441654e-38
-0.45241427 -0.086331867 0.94633341 1.9179212e-38
-0.4472754 -0.085471928 0.94599992 1.9270329e-38
-0.44395614 -0.085471928 0.94599998 1.9270331e-38
-0.46817896 -0.083157904 0.94800001 1.7704082e-38
-0.45154738 -0.083989479 0.94800001 1.8994102e-38
-0.44822106 -0.083989479 0.94800001 1.9178133e-38
-0.44276404 -0.083069302 0.94700003 1.9270692e-38
-0.43777981 -0.083069302 0.94699997 1.9731307e-38
-0.43260923 -0.082697809 0.94749999 1.9823862e-38
-0.42766199 -0.083871342 0.94666672 1.9547278e-38
-0.42346537 -0.082697809 0.94749999 1.9640189e-38
-0.41799065 -0.081436843 0.94733334 1.9731664e-38
-0.41285872 -0.081407897 0.94700003 1.9638751e-38
-0.40758684 -0.081351161 0.94633335 1.9823142e-38
-0.40313786 -0.081224903 0.94679993 1.9730944e-38
-0.39748597 -0.080492981 0.94599992 1.9915336e-38
-0.39250699 -0.080492981 0.94599992 1.9823502e-38
-0.38752806 -0.080492981 0.94599992 2.0007894e-38
-0.38254914 -0.080492981 0.94599992 1.8718593e-38
-0.37922984 -0.080492981 0.94599998 1.7154148e-38
-0.41662106 -0.079000004 0.94800001 1.9914976e-38
-0.4132947 -0.079000004 0.94800001 1.9823501e-38
-0.40830526 -0.079000004 0.94800001 2.0007896e-38
-0.40248421 -0.079000004 0.94800001 2.0007533e-38
-0.39832631 -0.079000004 0.94800001 1.9822782e-38
-0.39250526 -0.079000004 0.94800001 1.9823865e-38
-0.38668421 -0.079000004 0.94800001 1.9731308e-38
-0.38252631 -0.079000004 0.94800001 1.7982831e-38
-0.37743759 -0.077479705 0.94685715 2.2588651e-38
-0.37259123 -0.076343857 0.94600004 2.3326215e-38
-0.36802721 -0.075928941 0.94599998 2.341805e-38
-0.36263332 -0.075514033 0.94599992 2.3509886e-38
-0.35765442 -0.075514033 0.94599992 2.3326215e-38
-0.34271753 -0.075514033 0.94599992 2.2591172e-38
-0.33797541 -0.075567253 0.94666666 2.3509886e-38
-0.33358946 -0.075514033 0.94599998 2.2314948e-38
-0.32114211 -0.075514033 0.94599998 2.3509886e-38
-0.31782281 -0.075514033 0.94599992 2.3509886e-38
-0.31450349 -0.075514033 0.94599998 2.3142544e-38
-0.37504211 -0.074010529 0.94800001 2.3326215e-38
-0.37138313 -0.073345259 0.94800007 2.3234379e-38
-0.36672631 -0.073178947 0.94800001 2.341805e-38
-0.36173686 -0.073178947 0.94800001 2.341805e-38
-0.35692948 -0.072981402 0.94760001 2.341805e-38
-0.35204512 -0.072496243 0.94685715 2.2774484e-38
-0.34723204 -0.073101319 0.94700003 2.3234379e-38
-0.34211159 -0.073345259 0.94800007 2.3326215e-38
-0.33678949 -0.074010529 0.94800001 2.3234379e-38
-0.33180001 -0.073456146 0.94800001 2.3509886e-38
-0.32729563 -0.07310088 0.94700003 2.1762857e-38
-0.3223114 -0.07310088 0.94700003 2.3234379e-38
-0.31769437 -0.073646672 0.94760001 2.3142544e-38
-0.31191087 -0.072950177 0.9472 2.341805e-38
-0.30735877 -0.07310088 0.94699997 2.2774843e-38
-0.30237457 -0.07310088 0.94699997 2.3234379e-38
-0.29905176 -0.07310088 0.94700003 2.3509886e-38
-0.29126841 -0.072194733 0.94599998 2.3509886e-38
-0.28772631 -0.070684209 0.94800001 2.3509886e-38
-0.28107369 -0.070684209 0.94800001 2.3509886e-38
-0.27730834 -0.071402192 0.94649994 2.3326215e-38
-0.2738421 -0.070535086 0.94599998 2.3142544e-38
-0.2464579 -0.070535086 0.94599998 8.3806196e-40
-0.2431386 -0.070535086 0.94599992 3.0478732e-39
-0.23898947 -0.070535086 0.94599998 4.6134038e-39
-0.21741404 -0.070535086 0.94599998 4.5219201e-39
-0.21492456 -0.070535086 0.94599998 4.5204978e-39
-0.27608421 -0.068189472 0.94800001 1.7142646e-38
-0.27246928 -0.068116665 0.94699997 1.3091813e-38
-0.26776844 -0.067357898 0.94800001 5.3249342e-44
-0.26028422 -0.067357898 0.94800001 1.9401159e-39
-0.25707299 -0.067964911 0.9472 1.9386642e-39
-0.25253245 -0.068116665 0.94700003 2.2152567e-39
-0.24730375 -0.068266667 0.94742858 2.8642162e-39
-0.24198948 -0.068189472 0.94800001 4.521218e-39
-0.23699999 -0.068189472 0.94800001 5.531763e-39
-0.23187016 -0.067316294 0.94742858 5.8994665e-39
-0.22690131 -0.066490792 0.94749999 4.9793137e-39
-0.22230451 -0.066584215 0.9471429 4.5201362e-39
-0.21744269 -0.067309357 0.94733334 4.3368184e-39
-0.21265921 -0.06728553 0.94699997 4.5201376e-39
-0.20828597 -0.066109359 0.94599992 4.4279434e-39
-0.19542105 -0.065694734 0.94800001 8.6095778e-42
-0.19209474 -0.065694734 0.94800001 1.3285914e-38
-0.18684094 -0.06560234 0.94666666 1.8997321e-38
-0.18377896 -0.065694734 0.94800001 1.6605894e-38
-0.21205263 -0.064031579 0.94800001 3.6918175e-39
-0.20706315 -0.064031579 0.94800001 3.8776465e-39
-0.20290527 -0.064031579 0.94800001 5.4442533e-39
-0.19126317 -0.064031579 0.94800001 3.9076062e-39
-0.18627369 -0.063199997 0.94800001 2.2775199e-38
-0.18322456 -0.062922806 0.94800001 2.27734e-38
-0.11036666 -0.060577191 0.94599998 2.3509886e-38
-0.10704737 -0.060577195 0.94599992 2.3509886e-38
-0.10213917 -0.06061988 0.94666666 2.3509884e-38
-0.097089469 -0.060577195 0.94599992 2.341733e-38
-0.092110522 -0.060577195 0.94599992 2.3417327e-38
-0.087131582 -0.060577195 0.94599992 2.3417687e-38
-0.082180992 -0.061428364 0.94633335 2.3048902e-38
-0.077480696 -0.061817545 0.94685715 2.3140737e-38
-0.072271049 -0.061471056 0.94700003 2.2956346e-38
-0.068322219 -0.061130404 0.94599992 2.26794e-38
-0.055715792 -0.060705263 0.94800001 2.3139656e-38
-0.053995613 -0.061471052 0.94700003 2.2863064e-38
-0.11115438 -0.058487725 0.94800001 2.3418046e-38
-0.10760631 -0.058376841 0.94800007 2.3509886e-38
-0.10228422 -0.059042107 0.94800001 2.3509884e-38
-0.09729474 -0.059042107 0.94800001 2.3509884e-38
-0.092305265 -0.059042107 0.94800001 2.3509884e-38
-0.087648422 -0.058376841 0.94800007 2.3509524e-38
-0.082326315 -0.059042107 0.94800001 2.3417687e-38
-0.07733684 -0.059042107 0.94800001 2.3049261e-38
-0.072347373 -0.059042107 0.94800001 2.323257e-38
-0.067311108 -0.058169007 0.94733334 2.2863792e-38
-0.06230263 -0.058148246 0.94699997 2.2771953e-38
-0.058149125 -0.058148246 0.94699997 2.2679395e-38
0.19816315 -0.041691579 0.94680005 2.1941837e-38
0.20227981 -0.041840646 0.94766665 2.1757448e-38
0.20734961 -0.041659396 0.9471429 2.1573053e-38
0.21254605 -0.040682893 0.94650006 2.138794e-38
0.21824385 -0.040661402 0.94599992 2.148122e-38
0.22322279 -0.040661402 0.94599992 2.1665972e-38
0.22778684 -0.041076314 0.94599998 2.1849285e-38
0.23326226 -0.041505557 0.94633335 2.1665253e-38
0.23783158 -0.041578948 0.94800001 2.1481223e-38
0.25279999 -0.040747367 0.94800001 2.0285206e-38
0.25529474 -0.040747367 0.94800001 2.0285209e-38
0.19292632 -0.039084211 0.94800001 2.1757451e-38
0.21205263 -0.039084211 0.94800001 2.1387583e-38
0.21771932 -0.038502339 0.94733334 2.1388306e-38
0.22270525 -0.038225144 0.94733334 2.1665972e-38
0.22769123 -0.038225144 0.94733334 2.1664894e-38
0.23234315 -0.038086314 0.94800007 2.1757446e-38
0.2365842 -0.03866842 0.94800001 2.1664893e-38
0.25279999 -0.039084211 0.94800001 2.0744743e-38
0.26194736 -0.039084211 0.94800001 2.0377405e-38
0.2691465 -0.037381575 0.94700003 2.1204999e-38
0.27202874 -0.036391579 0.9472 2.1204998e-38
0.27649999 -0.036173686 0.94800001 2.1297556e-38
0.28107369 -0.035757896 0.94800001 2.1113518e-38
0.30386606 -0.036287133 0.94733334 2.0283767e-38
0.32280174 -0.035682455 0.94599998 2.0099373e-38
0.33275965 -0.035682455 0.94599998 2.0098294e-38
0.27724844 -0.033429474 0.94800007 2.1481583e-38
0.30269474 -0.03409474 0.94800001 2.0559272e-38
0.30685261 -0.03409474 0.94800001 2.0467435e-38
0.31184211 -0.03409474 0.94800001 2.0282685e-38
0.31683159 -0.033263158 0.94800001 2.009865e-38
0.32251677 -0.032593563 0.94733334 2.0098649e-38
0.3278797 -0.032372434 0.94628572 2.0006453e-38
0.33243975 -0.032384798 0.94666672 2.0097931e-38
0.33735281 -0.032197591 0.94725001 2.009829e-38
0.34257305 -0.032180045 0.94675004 2.009865e-38
0.34593686 -0.030768422 0.94800001 1.9913536e-38
0.32681054 -0.029105267 0.94800001 1.98217e-38
0.33180001 -0.029105267 0.94800001 2.0006092e-38
0.33720529 -0.028689474 0.94800001 2.0189764e-38
0.34177896 -0.028273681 0.94800001 2.0006099e-38
0.34676841 -0.028273681 0.94800001 1.9821703e-38
0.35179299 -0.028415438 0.9472 1.9729507e-38
0.35718158 -0.027218856 0.94749999 1.9913899e-38
0.3621847 -0.027412105 0.94700003 1.9729513e-38
0.36709097 -0.027195739 0.94771427 1.9913904e-38
0.37196541 -0.028374936 0.94742864 1.9637673e-38
0.37617424 -0.028509943 0.94666672 1.9821704e-38
0.38224912 -0.026333332 0.94800001 1.9545119e-38
0.38668421 -0.025778947 0.94800001 1.9545118e-38
0.39229691 -0.02576535 0.94749999 1.9361082e-38
0.39748597 -0.026554383 0.94600004 1.8992303e-38
0.40306666 -0.026933331 0.94685715 1.8807554e-38
0.40757591 -0.026933331 0.94685715 1.8531322e-38
0.41159299 -0.02572456 0.94599998 1.8254736e-38
0.42769155 -0.026388418 0.94599998 1.8162187e-38
0.43233857 -0.026554383 0.94600004 1.7977435e-38
0.43621111 -0.026277775 0.94599992 1.7794117e-38
0.38252631 -0.02411579 0.94800001 1.9452926e-38
0.38834739 -0.02411579 0.94800001 1.9545118e-38
0.39167371 -0.024115792 0.94800001 1.9637315e-38
0.39666316 -0.024115792 0.94800001 1.9084858e-38
0.40497896 -0.02411579 0.94800001 1.8899748e-38
0.40830526 -0.024115792 0.94800001 1.8715713e-38
0.41300294 -0.024098828 0.94733334 1.8254735e-38
0.41784298 -0.023258774 0.94700003 1.816218e-38
0.42258459 -0.023430176 0.9472 1.8162182e-38
0.42867896 -0.023699999 0.94800001 1.7977437e-38
0.43291998 -0.023450527 0.94800007 1.7793402e-38
0.43821844 -0.022647807 0.94749999 1.7609724e-38
0.44291988 -0.022435674 0.94733334 1.7516814e-38
0.44790587 -0.022435673 0.94733334 1.7425334e-38
0.45289183 -0.022435673 0.94733334 1.7057989e-38
0.45787716 -0.021605263 0.94733334 1.68736e-38
0.46264702 -0.022425149 0.94688892 1.6873239e-38
0.46762985 -0.022425147 0.9468888 1.6505177e-38
0.47261345 -0.022425147 0.94688892 1.622859e-38
0.47637782 -0.021313451 0.94666672 1.6228948e-38
0.44489473 -0.019126317 0.94800001 1.7516463e-38
0.44822106 -0.019126317 0.94800001 1.7240584e-38
0.4532105 -0.019126317 0.94800001 1.72413e-38
0.45653686 -0.019126317 0.94800001 1.6872526e-38
0.46901053 -0.019126317 0.94800001 1.6319711e-38
0.47350106 -0.018461052 0.94800007 1.6687049e-38
0.47695827 -0.017787719 0.94760001 1.4842412e-38
0.47649476 -0.014136842 0.94800001 7.107348e-39
-0.46632367 -0.090928949 0.95099998 1.7704082e-38
-0.4663237 -0.087592103 0.95099998 1.7612245e-38
-0.46409914 -0.08647982 0.95099998 1.7520051e-38
-0.47281578 -0.081173681 0.954 1.770336e-38
-0.46736929 -0.082116671 0.95199996 1.7611525e-38
-0.46284479 -0.082758769 0.95299995 1.8257257e-38
-0.457829 -0.082758769 0.95300007 1.8809711e-38
-0.4530921 -0.082201757 0.95300001 1.89941e-38
-0.44832432 -0.08181645 0.95174998 1.9086297e-38
-0.44296575 -0.080918416 0.95099998 1.936217e-38
-0.43796051 -0.080918416 0.95099998 1.936217e-38
-0.43253815 -0.081335522 0.95099998 1.9547639e-38
-0.42828363 -0.081585787 0.95100003 1.9547996e-38
-0.42377895 -0.080918416 0.95099998 1.9640549e-38
-0.47114211 -0.079500005 0.954 1.7611883e-38
-0.46946844 -0.079500005 0.954 1.7704079e-38
-0.44659472 -0.078942105 0.954 1.8902628e-38
-0.44246632 -0.078061052 0.95279998 1.9362527e-38
-0.43786314 -0.077661403 0.95199996 1.9454721e-38
-0.43285263 -0.077661403 0.95199996 1.9547636e-38
-0.42791015 -0.07782007 0.95137501 1.9547277e-38
-0.42294475 -0.07758157 0.95100009 1.9823861e-38
-0.41817778 -0.077104881 0.95100009 2.0191563e-38
-0.41282746 -0.076696619 0.95185715 1.9916055e-38
-0.40752479 -0.077207513 0.95228577 1.9639475e-38
-0.40272236 -0.076867111 0.95250005 2.0191928e-38
-0.39770922 -0.076867104 0.95250005 1.9915698e-38
-0.39269602 -0.076867111 0.95250005 1.9639468e-38
-0.38806263 -0.077009998 0.95219994 1.8717878e-38
-0.38290262 -0.076747365 0.95100003 2.120716e-38
-0.43766844 -0.074478947 0.954 1.9177774e-38
-0.43264735 -0.074478947 0.954 1.9178136e-38
-0.42762628 -0.074478947 0.954 1.9639475e-38
-0.42294002 -0.073809475 0.954 1.9731311e-38
-0.41791898 -0.073809475 0.954 1.9730948e-38
-0.41256317 -0.074478947 0.954 1.9639471e-38
-0.40754211 -0.074478947 0.954 1.9823865e-38
-0.40252104 -0.074478947 0.954 1.9916061e-38
-0.39749995 -0.074478947 0.954 1.9732387e-38
-0.39247894 -0.074478947 0.954 1.90881e-38
-0.38712317 -0.073809475 0.954 2.0194464e-38
-0.38243684 -0.073084213 0.954 2.3141826e-38
-0.37801576 -0.07265088 0.95199996 2.2405349e-38
-0.3733092 -0.071324997 0.95099998 2.2130201e-38
-0.36788687 -0.070907891 0.95099998 2.3509886e-38
-0.36288157 -0.070907891 0.95099998 2.2499336e-38
-0.3578763 -0.070907891 0.95099998 2.1854336e-38
-0.35453948 -0.070907891 0.95099998 2.3509886e-38
-0.34786579 -0.070907891 0.95099998 2.2775202e-38
-0.34244341 -0.071324997 0.95099998 2.3142544e-38
-0.33783588 -0.072034538 0.95212507 2.2958873e-38
-0.33311251 -0.071798027 0.95174998 2.2865961e-38
-0.32853246 -0.071057022 0.95300001 2.2958514e-38
-0.32283947 -0.070907891 0.95099998 2.2130918e-38
-0.3177 -0.071620002 0.95159996 2.3326215e-38
-0.31282893 -0.070907891 0.95099998 2.3509886e-38
-0.30782366 -0.070907891 0.95099998 2.2775202e-38
-0.30281842 -0.070907891 0.95099998 2.2040159e-38
-0.29747948 -0.071575262 0.95100003 2.3326215e-38
-0.29322499 -0.071324997 0.95099998 2.3509886e-38
-0.28613418 -0.070907891 0.95099998 2.3509886e-38
-0.28446579 -0.070907891 0.95099998 2.3509886e-38
-0.37657893 -0.069457889 0.954 1.8998458e-38
-0.37239471 -0.069457889 0.954 2.3234379e-38
-0.3673737 -0.069457889 0.954 2.3509886e-38
-0.36235261 -0.069457889 0.954 2.1855053e-38
-0.35699683 -0.068788424 0.954 2.2314589e-38
-0.35220104 -0.068701051 0.95279998 2.2774843e-38
-0.34728944 -0.069457889 0.954 2.3142544e-38
-0.34226841 -0.069457889 0.954 2.3142544e-38
-0.33724737 -0.069457889 0.954 2.3050708e-38
-0.32553157 -0.069457889 0.954 2.3509886e-38
-0.32218421 -0.069457889 0.954 2.2867037e-38
-0.31716317 -0.069457889 0.954 2.3326215e-38
-0.3121421 -0.069457889 0.954 2.3509886e-38
-0.3067863 -0.068788424 0.954 2.3509886e-38
-0.3021 -0.068621047 0.954 2.2867037e-38
-0.29741368 -0.068788424 0.954 2.3509886e-38
-0.29172316 -0.068788424 0.954 2.3509886e-38
-0.28737158 -0.068453684 0.954 2.3142183e-38
-0.28209659 -0.067868792 0.95185715 1.9178848e-38
-0.27820921 -0.067571044 0.95099998 1.2814526e-38
-0.27278683 -0.065902628 0.95099998 7.8052324e-43
-0.26694867 -0.066423684 0.95249999 8.3196631e-40
-0.26260313 -0.066694736 0.95279998 2.2166944e-39
-0.25691053 -0.066110529 0.954 3.9691148e-39
-0.25233024 -0.066006579 0.95249999 4.4279462e-39
-0.24776052 -0.065902628 0.95099998 3.8776437e-39
-0.24275525 -0.065902628 0.95099998 4.5212208e-39
-0.23774999 -0.065902628 0.95099998 5.7175766e-39
-0.23441315 -0.065902628 0.95099998 6.2685938e-39
-0.22940789 -0.065902628 0.95099998 5.0711506e-39
-0.20104472 -0.065902628 0.95099998 3.8758472e-39
-0.1993763 -0.065902628 0.95099998 1.8533209e-39
-0.25607368 -0.064436838 0.954 4.3375302e-39
-0.25188947 -0.064436838 0.954 4.4279434e-39
-0.24686843 -0.064436838 0.954 4.520495e-39
-0.24230394 -0.064335525 0.95249999 4.7970861e-39
-0.23728684 -0.064335525 0.95249999 5.5321161e-39
-0.23180525 -0.064436838 0.954 5.6239572e-39
-0.22726315 -0.063498683 0.95249999 4.7038016e-39
-0.22228223 -0.062822364 0.95174998 4.7041688e-39
-0.21769145 -0.062822364 0.95175004 4.6130493e-39
-0.21272369 -0.061731577 0.95100003 5.1687454e-39
-0.20733382 -0.061639849 0.95142859 6.6442272e-39
-0.202475 -0.062384646 0.95250005 6.8275465e-39
-0.19749475 -0.063600004 0.954 5.4464099e-39
-0.19311972 -0.062982894 0.95099998 2.1385006e-39
-0.18848421 -0.061936844 0.95159996 1.3387147e-38
-0.18410528 -0.061089475 0.954 2.17625e-38
-0.051801316 -0.061828945 0.95249999 1.9449643e-38
-0.049373683 -0.06192632 0.954 1.86155e-38
-0.21506841 -0.059415791 0.954 8.0249897e-39
-0.21172106 -0.059415791 0.954 8.3927142e-39
-0.20626491 -0.059291229 0.95199996 8.3930715e-39
-0.20251578 -0.059415791 0.954 8.2086705e-39
-0.18661579 -0.059415791 0.954 1.4946584e-38
-0.18494211 -0.059415791 0.954 1.9556296e-38
-0.10745066 -0.056441449 0.95324999 2.3509884e-38
-0.10276973 -0.056814477 0.95250005 2.3509883e-38
-0.097756572 -0.056814477 0.95250005 2.3417689e-38
-0.092743419 -0.056814477 0.95250005 2.3509884e-38
-0.08724539 -0.05635329 0.95174998 2.3325493e-38
-0.082586847 -0.056726318 0.95100003 2.332549e-38
-0.077581577 -0.056726318 0.95100003 2.3325129e-38
-0.072576314 -0.056726318 0.95100003 2.2864511e-38
-0.067571051 -0.055892106 0.95099998 2.314038e-38
-0.062565789 -0.055892106 0.95099998 2.2864149e-38
-0.057143424 -0.05714342 0.95099998 2.2863789e-38
-0.054309212 -0.058485523 0.95249999 2.3140733e-38
-0.086194731 -0.054394737 0.954 2.3509886e-38
-0.082428947 -0.053976316 0.954 2.3509886e-38
-0.07755658 -0.052887499 0.95324999 2.3417687e-38
-0.072728947 -0.052664034 0.95299995 2.3233655e-38
-0.067714036 -0.053500876 0.95300001 2.3141102e-38
-0.062629819 -0.054280702 0.95199996 2.2772315e-38
-0.059415791 -0.054394737 0.954 2.286415e-38
0.24275525 -0.041710526 0.95100003 2.1204999e-38
0.24776053 -0.041710526 0.95100003 2.074546e-38
0.25165346 -0.041988596 0.95099998 2.0101531e-38
0.25777104 -0.040876314 0.95099998 2.0377402e-38
0.1895649 -0.037577193 0.95199996 2.23117e-38
0.19272481 -0.037111279 0.95228577 2.1573419e-38
0.19781095 -0.038393419 0.95149994 2.1756368e-38
0.20203158 -0.037827067 0.95228577 2.1480143e-38
0.20720866 -0.037597105 0.95249999 2.1480496e-38
0.21253233 -0.036634587 0.95228571 2.1204272e-38
0.21731184 -0.036288157 0.95099998 2.147978e-38
0.2227342 -0.035871051 0.95099998 2.1481219e-38
0.22773947 -0.035871051 0.95099998 2.1388664e-38
0.23274474 -0.035871051 0.95099998 2.1665251e-38
0.23808368 -0.036538418 0.95100003 2.1480863e-38
0.24275525 -0.037539475 0.95100009 2.1388666e-38
0.2477605 -0.037539475 0.95100009 2.1573414e-38
0.25252742 -0.037062783 0.95100009 2.1481586e-38
0.25777104 -0.037539475 0.95100009 2.1020964e-38
0.26277629 -0.036705259 0.95100003 2.1389032e-38
0.26722544 -0.03698333 0.95100003 2.1113161e-38
0.18912631 -0.034310527 0.954 2.1941837e-38
0.19247368 -0.034310527 0.954 2.1849285e-38
0.2167421 -0.034310527 0.954 2.1296106e-38
0.22176318 -0.034310527 0.954 2.1387584e-38
0.22678421 -0.034310527 0.954 2.1112076e-38
0.23180525 -0.034310527 0.954 2.1388663e-38
0.23724474 -0.033892106 0.954 2.148086e-38
0.24210604 -0.033562407 0.95314282 2.1296469e-38
0.24731445 -0.033419736 0.95249993 2.1203556e-38
0.25218159 -0.032600876 0.95300007 2.1296113e-38
0.25719735 -0.032600876 0.95300007 2.1480859e-38
0.26165614 -0.032879826 0.95300001 2.148122e-38
0.267474 -0.033250988 0.95362496 2.148122e-38
0.27237973 -0.032583944 0.95249999 2.148086e-38
0.27696422 -0.031218946 0.95159996 2.1389386e-38
0.28258878 -0.032742765 0.95100009 2.1389389e-38
0.28725716 -0.032367669 0.95314282 2.1389389e-38
0.29203802 -0.032428071 0.95333332 2.129719e-38
0.29746917 -0.031594735 0.95142853 2.0928408e-38
0.30281842 -0.0317 0.95100003 2.0467077e-38
0.30782366 -0.0317 0.95100003 2.055927e-38
0.31282893 -0.031699996 0.95100003 2.0374878e-38
0.31783417 -0.030865788 0.95099998 2.046707e-38
0.32200527 -0.030865788 0.95099998 2.0375234e-38
0.2786684 -0.029289475 0.954 2.1204995e-38
0.2820158 -0.029289475 0.954 2.1389386e-38
0.2867021 -0.028620001 0.954 2.1297552e-38
0.29205787 -0.029289475 0.954 2.1297195e-38
0.29707894 -0.029289475 0.954 2.1020604e-38
0.3021 -0.029289475 0.954 2.0743659e-38
0.30679825 -0.028421929 0.95300001 2.0559267e-38
0.3121421 -0.028452629 0.954 2.0559625e-38
0.31721163 -0.028532708 0.95271438 2.0375237e-38
0.32240263 -0.027585085 0.95299995 2.0283396e-38
0.32726645 -0.026715787 0.95175004 2.0190484e-38
0.33285001 -0.026694736 0.95100003 1.9913537e-38
0.33752155 -0.026527893 0.95100003 1.9729147e-38
0.34286049 -0.025860526 0.95099998 1.9822063e-38
0.34786579 -0.025860526 0.95099998 1.9913902e-38
0.35245395 -0.026277632 0.95099998 1.982206e-38
0.37289211 -0.025860526 0.95099998 1.963768e-38
0.37823105 -0.026527893 0.95100003 1.9453646e-38
0.38123423 -0.026694737 0.95099998 1.9545479e-38
0.33306316 -0.02426842 0.954 2.0373436e-38
0.33781645 -0.024249341 0.95324999 1.9913897e-38
0.34217158 -0.023233684 0.95279998 1.9820984e-38
0.34728944 -0.02426842 0.954 1.982206e-38
0.35231054 -0.02426842 0.954 1.9822063e-38
0.35760328 -0.023394078 0.95249999 1.9729868e-38
0.36270526 -0.022545613 0.95200008 1.9637675e-38
0.36771575 -0.022545615 0.95199996 1.972987e-38
0.3726441 -0.022557236 0.95249993 1.9638035e-38
0.37738308 -0.023040224 0.95271426 1.9545482e-38
0.38266972 -0.022558333 0.95249993 1.9361089e-38
0.38753057 -0.022339804 0.95212495 1.9361449e-38
0.39296538 -0.021598497 0.95228577 1.9454007e-38
0.39783579 -0.021869475 0.95159996 1.9176694e-38
0.40278944 -0.022545613 0.95200008 1.8715713e-38
0.40736312 -0.021562107 0.95279998 1.8807907e-38
0.41256312 -0.021757895 0.954 1.8531323e-38
0.4172495 -0.021590527 0.954 1.8162539e-38
0.42260528 -0.020921053 0.954 1.816218e-38
0.42785674 -0.021589098 0.95185715 1.797779e-38
0.43295527 -0.020855263 0.95099998 1.7701208e-38
0.43684825 -0.021411404 0.95099998 1.7609007e-38
0.38829476 -0.019247368 0.954 1.9269614e-38
0.39415261 -0.019247368 0.954 1.9638388e-38
0.39749995 -0.019247368 0.954 1.899231e-38
0.40252104 -0.019247368 0.954 1.8992303e-38
0.42929998 -0.019247368 0.954 1.7793403e-38
0.43264735 -0.019247368 0.954 1.7792687e-38
0.43815857 -0.019232236 0.95324999 1.7700845e-38
0.44296575 -0.019186841 0.95099998 1.7424621e-38
0.44771051 -0.017573684 0.954 1.7333143e-38
0.45285395 -0.016988158 0.95249993 1.6963639e-38
0.45812181 -0.017063158 0.95228571 1.6871803e-38
0.46293354 -0.017739473 0.95175004 1.6596295e-38
0.46770948 -0.017328618 0.95212495 1.6504098e-38
0.47265792 -0.016422806 0.95199996 1.6688122e-38
0.47633421 -0.01585 0.95099998 1.4844177e-38
0.47457761 -0.014203947 0.95249999 1.1708121e-38
0.47633421 -0.014181579 0.95099998 9.495424e-39
-0.46709824 -0.081343852 0.95599997 1.7980669e-38
-0.47277015 -0.078234211 0.95899999 1.7704798e-38
-0.46683377 -0.078258991 0.95674998 1.844129e-38
-0.46203822 -0.078229055 0.95637494 1.8902264e-38
-0.45712835 -0.077893592 0.9569 1.8993744e-38
-0.45232445 -0.078289583 0.95712495 1.8717872e-38
-0.44739121 -0.076731578 0.95599997 1.9178134e-38
-0.44361752 -0.076312274 0.95599997 1.9639115e-38
-0.46099299 -0.074869297 0.95899999 1.8994102e-38
-0.45594561 -0.074869297 0.95899999 1.9270329e-38
-0.450057 -0.074028075 0.95899999 1.9362164e-38
-0.44646859 -0.073429652 0.95780003 1.9178134e-38
-0.44233581 -0.073021807 0.95685714 1.9177776e-38
-0.43759429 -0.072231136 0.95750004 1.9085942e-38
-0.43187717 -0.072957896 0.95600003 1.9270694e-38
-0.42835525 -0.072231144 0.95749998 1.9455439e-38
-0.4228068 -0.071867764 0.95825005 1.9271052e-38
-0.41723174 -0.07208579 0.95780003 1.9823501e-38
-0.41239691 -0.072231136 0.95750004 1.9915339e-38
-0.40735745 -0.072231144 0.95749998 2.0007176e-38
-0.402318 -0.072231144 0.95749998 2.0006817e-38
-0.3977384 -0.07208579 0.95780003 1.9363963e-38
-0.39307761 -0.072231144 0.95749998 1.9732758e-38
-0.38827017 -0.071839757 0.95600003 1.9827485e-38
-0.38407719 -0.071280695 0.95599997 2.0659039e-38
-0.39117104 -0.069821924 0.95899999 2.2775202e-38
-0.38780615 -0.069261104 0.95899993 2.1577389e-38
-0.3829987 -0.068591081 0.95749998 2.1209335e-38
-0.37823421 -0.06753622 0.9572857 2.2313512e-38
-0.37330738 -0.067338601 0.95720005 2.3326215e-38
-0.36759144 -0.067979604 0.95674992 2.341805e-38
-0.36245102 -0.067044742 0.95779991 2.341805e-38
-0.35808071 -0.066808186 0.95600003 2.3142185e-38
-0.3524828 -0.066667721 0.95719993 2.2958873e-38
-0.34790349 -0.067507602 0.95799994 2.3326215e-38
-0.34226361 -0.068031579 0.95749998 2.2038724e-38
-0.33764341 -0.067191668 0.95750004 2.2498978e-38
-0.33268362 -0.06821458 0.95712495 2.3050349e-38
-0.32785583 -0.067794628 0.95712489 2.3326215e-38
-0.32252499 -0.067191668 0.95749992 2.341805e-38
-0.31748551 -0.067191668 0.95749998 2.2407142e-38
-0.31260964 -0.067227192 0.958 2.341805e-38
-0.30776489 -0.066808186 0.95600003 2.3509886e-38
-0.30273333 -0.066249117 0.95600003 2.341805e-38
-0.29688019 -0.066626139 0.95659989 2.341805e-38
-0.29267016 -0.066808186 0.95600003 2.3509886e-38
-0.28763857 -0.066249117 0.95600003 2.1298638e-38
-0.28428417 -0.066249117 0.95599997 1.8718915e-38
-0.27925262 -0.066249117 0.95599997 8.1164398e-39
-0.26918948 -0.066249117 0.95599997 2.8205195e-40
-0.37687016 -0.064774558 0.95899999 2.3509886e-38
-0.35836315 -0.064774558 0.95899999 2.3509886e-38
-0.30704823 -0.064774558 0.95899993 2.3142544e-38
-0.30195841 -0.063684031 0.95779991 2.0838394e-38
-0.29755986 -0.064723901 0.95825005 1.7704108e-38
-0.29187632 -0.063684031 0.95780003 5.3485012e-39
-0.28739825 -0.063865788 0.95799994 9.2415774e-40
-0.28191203 -0.063966669 0.95771426 5.5790877e-40
-0.27647457 -0.063865781 0.95799994 3.2319085e-39
-0.27205315 -0.064101577 0.95899999 4.0616762e-39
-0.26751053 -0.063933328 0.95899999 4.7970804e-39
-0.26321346 -0.063069589 0.95866668 4.1542292e-39
-0.25815111 -0.062526062 0.95771426 4.4290168e-39
-0.25281361 -0.062152192 0.95749998 4.3364624e-39
-0.24777411 -0.062152192 0.95749992 4.2446255e-39
-0.24235435 -0.062056143 0.95599991 4.6119731e-39
-0.23781842 -0.06218509 0.958 5.0718639e-39
-0.2326557 -0.062152192 0.95749998 4.9803843e-39
-0.22773683 -0.061345611 0.958 4.2435535e-39
-0.22390525 -0.061217543 0.95599997 4.4279462e-39
-0.20042455 -0.062894732 0.95600003 6.8279066e-39
-0.19707017 -0.061217543 0.95600003 7.3821538e-39
-0.19287717 -0.061217543 0.95599997 3.2416279e-39
-0.2431149 -0.059727196 0.95899993 4.5183426e-39
-0.23217896 -0.059727196 0.95899999 4.6108913e-39
-0.22797281 -0.059727196 0.95899993 4.5187027e-39
-0.22292542 -0.059727196 0.95899993 5.6239713e-39
-0.21765089 -0.059104096 0.958 8.0235561e-39
-0.21266425 -0.058418639 0.95824993 7.9313731e-39
-0.20778334 -0.057203505 0.95900005 7.655145e-39
-0.20207031 -0.057733182 0.95849997 8.116842e-39
-0.19727632 -0.057921927 0.95700002 8.0250037e-39
-0.1923399 -0.058792543 0.95750004 5.1723398e-39
-0.18774962 -0.05753734 0.95857143 2.696052e-39
-0.1827568 -0.057834428 0.95900005 1.9552707e-38
-0.11740351 -0.056185964 0.95599997 2.3509884e-38
-0.11354597 -0.056856841 0.95599997 2.3233655e-38
-0.056185964 -0.056185964 0.95599997 2.3140377e-38
-0.05235238 -0.057623558 0.95599991 1.9911348e-38
-0.04913421 -0.05753202 0.95749998 1.9444929e-38
-0.18086404 -0.054679822 0.95899999 2.3509886e-38
-0.12029561 -0.052156143 0.95899999 2.3233297e-38
-0.11709529 -0.052765679 0.95862502 2.341769e-38
-0.11254693 -0.053753074 0.95749998 2.3509884e-38
-0.10728362 -0.052940354 0.95799994 2.3417689e-38
-0.10224151 -0.052940354 0.95799994 2.3417326e-38
-0.09719941 -0.052940354 0.95800006 2.3417689e-38
-0.092049383 -0.05340476 0.95771426 2.341769e-38
-0.087864317 -0.052885089 0.95700002 2.341769e-38
-0.083461747 -0.051889472 0.95720005 2.341769e-38
-0.079666667 -0.051154386 0.95599997 2.3325492e-38
-0.06792631 -0.051154386 0.95600003 2.3233296e-38
-0.062894739 -0.051992983 0.95599991 2.2864511e-38
-0.057766337 -0.052723575 0.95787501 2.2864148e-38
-0.052997369 -0.052997366 0.95900005 2.1110983e-38
-0.04879123 -0.052997369 0.95900005 1.9260169e-38
-0.10178859 -0.049632456 0.95899993 2.3509883e-38
-0.098423682 -0.049632456 0.95899999 2.3509886e-38
-0.08664649 -0.049632456 0.95899999 2.3509886e-38
-0.083281577 -0.049632456 0.95899993 2.3509884e-38
-0.078154385 -0.049580704 0.958 2.3417687e-38
-0.073072366 -0.048713595 0.95749998 2.3325492e-38
-0.068032891 -0.048713595 0.95750004 2.3417684e-38
-0.063092105 -0.04879123 0.95900005 2.3141097e-38
-0.058044735 -0.049632456 0.95899993 2.3140376e-38
-0.052516669 -0.048190352 0.95900005 2.0925872e-38
-0.049211845 -0.048370615 0.95899999 1.9537476e-38
0.19790876 -0.036059648 0.95599997 2.1756009e-38
0.20377894 -0.036059648 0.95599997 2.1571624e-38
0.1887155 -0.032247078 0.95899993 2.1849285e-38
0.1922206 -0.032387279 0.95899999 2.1757087e-38
0.19726798 -0.034069739 0.95899999 2.1848564e-38
0.20239946 -0.033817369 0.95899999 2.129539e-38
0.20804013 -0.034042761 0.95825005 2.1295388e-38
0.21260877 -0.03277193 0.95799994 2.1204633e-38
0.21753728 -0.031915352 0.95749998 2.1296104e-38
0.22257674 -0.031915352 0.95749992 2.1203912e-38
0.22761621 -0.031915352 0.95750004 2.1019883e-38
0.23277633 -0.031932455 0.958 2.129575e-38
0.23728421 -0.031737898 0.95719993 2.129611e-38
0.24235438 -0.03102807 0.95600003 2.1296111e-38
0.24738598 -0.03102807 0.95600003 2.1020601e-38
0.26331928 -0.03102807 0.95599997 2.1573775e-38
0.26667368 -0.03102807 0.95599997 2.1481579e-38
0.24395615 -0.029442983 0.95899999 2.1296467e-38
0.24816227 -0.029442983 0.95899993 2.1296467e-38
0.25281361 -0.028555701 0.95749992 2.1111715e-38
0.25785306 -0.028555701 0.95750004 2.111172e-38
0.26247326 -0.028976316 0.95749998 2.1388666e-38
0.26751053 -0.029442983 0.95899999 2.1757446e-38
0.27221295 -0.029051226 0.95719993 2.1665613e-38
0.27716973 -0.02827617 0.95749998 2.1020604e-38
0.28250566 -0.02675025 0.9572857 2.0928049e-38
0.28805789 -0.026415788 0.95599997 2.1113158e-38
0.29251844 -0.027019123 0.95660001 2.1204998e-38
0.29732761 -0.026875878 0.95750004 2.1204996e-38
0.30205131 -0.026848683 0.95649999 2.1020968e-38
0.30704823 -0.02607807 0.95899993 2.0836212e-38
0.31220064 -0.026016884 0.95675004 2.0559265e-38
0.31782806 -0.025996489 0.95600003 2.0190843e-38
0.30284211 -0.024395613 0.95899999 2.1020967e-38
0.31377807 -0.023554385 0.95899999 2.055927e-38
0.3168065 -0.023722632 0.95899999 2.0191207e-38
0.32252684 -0.023722632 0.95899999 2.0191202e-38
0.32783455 -0.024028596 0.95780003 2.0282684e-38
0.33255836 -0.022441605 0.95771426 2.0281962e-38
0.33792743 -0.021711905 0.95728576 2.0098647e-38
0.34298596 -0.020964911 0.95600003 1.982206e-38
0.34801754 -0.021803508 0.95599991 1.9821343e-38
0.35323378 -0.021814475 0.95649987 1.9638389e-38
0.35808071 -0.020964911 0.95600003 1.9730588e-38
0.37904561 -0.020964911 0.95599997 1.9177057e-38
0.38239998 -0.020964911 0.95599997 1.9453285e-38
0.34322107 -0.019348245 0.95899999 2.0190842e-38
0.34742722 -0.019348245 0.95899993 1.991354e-38
0.35247457 -0.019348245 0.95899993 1.9637675e-38
0.35752192 -0.019348245 0.95899993 1.9730226e-38
0.36312434 -0.019333113 0.95825005 1.9729868e-38
0.36814389 -0.019287718 0.95600003 1.9545478e-38
0.37292236 -0.019317981 0.95749998 1.9638028e-38
0.37771139 -0.018507017 0.95900005 1.9452921e-38
0.38306692 -0.018618545 0.95857149 1.9268891e-38
0.38803816 -0.017637281 0.95749998 1.9361807e-38
0.39323193 -0.017433442 0.95787501 1.9453282e-38
0.39773843 -0.016634211 0.95780003 1.8899752e-38
0.40210858 -0.016970702 0.95780003 1.8715358e-38
0.40756643 -0.017426535 0.95749998 1.8715716e-38
0.41261229 -0.017645614 0.95800006 1.8623517e-38
0.4176544 -0.017645612 0.95799994 1.8346935e-38
0.4225488 -0.017639473 0.9576667 1.8069988e-38
0.42744094 -0.017633332 0.95733327 1.797779e-38
0.43255484 -0.01679693 0.95749992 1.7700486e-38
0.43759429 -0.01679693 0.95749992 1.7608292e-38
0.44215861 -0.016959649 0.95719993 1.7609724e-38
0.44680405 -0.016298773 0.95780003 1.7332781e-38
0.4511649 -0.015933333 0.95599997 1.7240583e-38
0.46374384 -0.015933333 0.95599997 1.6595939e-38
0.41893157 -0.014300876 0.95899999 1.8254382e-38
0.44248596 -0.014300876 0.95899999 1.7331702e-38
0.45173946 -0.014300876 0.95899993 1.6963997e-38
0.45691097 -0.01371769 0.95750004 1.6779607e-38
0.46159172 -0.013273507 0.95780003 1.6687412e-38
0.4668816 -0.013459649 0.95900005 1.6779602e-38
0.47192892 -0.012618421 0.95900005 1.502681e-38
0.47641549 -0.012338012 0.95900005 1.0880878e-38
0.48034123 -0.012618421 0.95899999 8.2997941e-39
0.46825042 -0.0071412278 0.95749998 9.682716e-39
0.47192898 -0.0080517549 0.95900005 8.5778103e-39
0.46793681 -0.003354386 0.95599997 8.4881482e-39
-0.47608069 -0.076950878 0.96399999 1.779628e-38
-0.47237253 -0.076897658 0.96333331 1.8164705e-38
-0.46798509 -0.075181581 0.963 1.8810073e-38
-0.46496665 -0.075103514 0.96200001 1.9178133e-38
-0.45990351 -0.075103514 0.96200001 1.8994102e-38
-0.45399648 -0.075103514 0.96200001 1.8809709e-38
-0.46593332 -0.073568419 0.96399999 1.917813e-38
-0.46255088 -0.073568419 0.96399999 1.8994098e-38
-0.45716023 -0.072108179 0.96333331 1.9270331e-38
-0.45318535 -0.071777195 0.96266669 1.927033e-38
-0.44842705 -0.070715442 0.96200001 1.927033e-38
-0.44302633 -0.070040345 0.96200007 1.9085939e-38
-0.43754125 -0.070462279 0.96200001 1.9178853e-38
-0.43323755 -0.070715442 0.96200001 1.9179218e-38
-0.42828068 -0.070535086 0.963 1.963911e-38
-0.42277369 -0.070040345 0.96200007 1.9639838e-38
-0.41799882 -0.070088886 0.96266669 1.9730949e-38
-0.41264737 -0.070040345 0.96200007 1.9822786e-38
-0.40758422 -0.070040345 0.96200007 2.0006817e-38
-0.40252104 -0.070040345 0.96200007 1.9915699e-38
-0.39745793 -0.070040345 0.96200007 1.8812599e-38
-0.39408246 -0.070040345 0.96200001 2.2406783e-38
-0.45155787 -0.068494737 0.96399999 1.8810429e-38
-0.44771141 -0.068423688 0.963 1.9086297e-38
-0.44241098 -0.068388157 0.96250004 1.9178134e-38
-0.43718246 -0.068494737 0.96399999 1.9270329e-38
-0.43295437 -0.068494737 0.96399999 1.945472e-38
-0.42111579 -0.068494737 0.96399999 1.927141e-38
-0.41604209 -0.068494737 0.96399999 1.9914981e-38
-0.41181403 -0.067649126 0.96399999 1.9822785e-38
-0.40686038 -0.067225814 0.96314281 1.9454721e-38
-0.40251604 -0.066984214 0.96314281 1.9456162e-38
-0.39800876 -0.066756144 0.96333325 2.2404981e-38
-0.39250326 -0.067206018 0.96285713 2.3234379e-38
-0.38816839 -0.066691928 0.96239996 2.2682647e-38
-0.38395613 -0.066664912 0.96200001 2.2314948e-38
-0.37129825 -0.066664912 0.96200001 2.3326215e-38
-0.36792281 -0.066664912 0.96200001 2.3509886e-38
-0.34594035 -0.066147365 0.96266669 2.3234379e-38
-0.34345087 -0.066664912 0.96200001 2.1302964e-38
-0.33501229 -0.066664912 0.96200001 2.3509886e-38
-0.3982842 -0.063421056 0.96399999 2.3509886e-38
-0.39351109 -0.063332163 0.96266669 2.3050708e-38
-0.38680071 -0.063705266 0.96319997 2.2958514e-38
-0.38279825 -0.063376032 0.96333325 2.2774843e-38
-0.37730026 -0.06286215 0.96285713 2.3142544e-38
-0.3726579 -0.063376024 0.96333325 2.2407142e-38
-0.36758772 -0.063376032 0.96333325 2.3142544e-38
-0.36260349 -0.063142978 0.96299994 2.3326215e-38
-0.35720503 -0.063159436 0.96324992 2.341805e-38
-0.35237721 -0.063376024 0.96333325 2.3142544e-38
-0.34827298 -0.063705266 0.96319997 2.2591172e-38
-0.34151796 -0.064588159 0.96249998 2.3234379e-38
-0.33704999 -0.064199127 0.963 2.2131636e-38
-0.33236492 -0.063175872 0.9634999 2.3326215e-38
-0.32758892 -0.063376024 0.96333325 2.341805e-38
-0.32218134 -0.062745303 0.96309084 2.3509886e-38
-0.31725276 -0.062519729 0.96316653 2.2957075e-38
-0.31268194 -0.062534913 0.96339989 1.9271403e-38
-0.30765849 -0.061643276 0.96266663 1.2353533e-38
-0.30241489 -0.060820177 0.963 6.4796181e-40
-0.29769146 -0.061859868 0.96274996 5.1672867e-39
-0.29227808 -0.060820177 0.963 3.046804e-39
-0.2876572 -0.060976494 0.96280003 4.427928e-39
-0.28298685 -0.060820177 0.963 4.24535e-39
-0.27791843 -0.060820177 0.963 4.0620349e-39
-0.27214473 -0.062023684 0.96200001 4.0613217e-39
-0.26834738 -0.061601754 0.96200001 4.5201418e-39
-0.30526665 -0.058347367 0.96399999 3.4162802e-39
-0.30272985 -0.058347367 0.96399999 4.5201418e-39
-0.27736139 -0.058347367 0.96399999 4.429014e-39
-0.27281892 -0.058278952 0.96288884 4.4283021e-39
-0.26750353 -0.058226313 0.96200001 4.4279462e-39
-0.26244035 -0.058226313 0.96200001 4.2449927e-39
-0.25761461 -0.058278952 0.96288884 4.5204978e-39
-0.25266373 -0.058305845 0.96333325 4.4290126e-39
-0.247593 -0.058587726 0.96333331 4.2428361e-39
-0.24237819 -0.057846371 0.96371418 4.3350275e-39
-0.23737107 -0.059130698 0.963 5.0707877e-39
-0.23230265 -0.057441231 0.963 5.1644252e-39
-0.22753902 -0.057833772 0.96250004 6.3618754e-39
-0.22162764 -0.057833772 0.96249998 6.3622327e-39
-0.21740745 -0.056989912 0.96249998 7.8398922e-39
-0.21265264 -0.056538597 0.96200001 7.1023257e-39
-0.20505789 -0.056538597 0.96200001 7.8395432e-39
-0.19324386 -0.056538597 0.96200007 7.8409782e-39
-0.26805964 -0.054964911 0.96399999 4.427942e-39
-0.2646772 -0.054964911 0.96399999 4.4279462e-39
-0.21563157 -0.054964911 0.96399999 7.4747208e-39
-0.21173544 -0.054242808 0.96319997 8.0260855e-39
-0.2072558 -0.054219998 0.96280003 8.301599e-39
-0.20227158 -0.053904556 0.96319997 8.3930659e-39
-0.19745721 -0.054219998 0.96279991 8.3930729e-39
-0.19259912 -0.054062281 0.963 8.3005172e-39
-0.18753071 -0.054062281 0.963 3.6082847e-39
-0.18380702 -0.054325145 0.96266669 1.0804261e-38
-0.11223333 -0.051475439 0.96200007 2.3509886e-38
-0.092824563 -0.051475439 0.96200001 2.3509881e-38
-0.12067194 -0.048943862 0.96200001 2.286379e-38
-0.11729649 -0.048099998 0.96200001 2.3048186e-38
-0.11259057 -0.048372589 0.96324992 2.3325134e-38
-0.10692105 -0.049152631 0.96279991 2.3509884e-38
-0.10185368 -0.047463506 0.96279991 2.3509884e-38
-0.097130336 -0.048141856 0.96285713 2.3509883e-38
-0.091848373 -0.048638847 0.96314281 2.3509881e-38
-0.087313533 -0.047702007 0.96371418 2.341769e-38
-0.082447365 -0.047777195 0.96399999 2.3325493e-38
-0.076843269 -0.047569592 0.96266669 2.3233656e-38
-0.071778946 -0.046444446 0.96266669 2.332549e-38
-0.067508772 -0.046412282 0.96200001 2.350988e-38
-0.063289471 -0.046412278 0.96200007 2.3233653e-38
-0.058226317 -0.047256142 0.96199995 2.3141455e-38
-0.054850876 -0.047256142 0.96200001 2.3233655e-38
-0.10147369 -0.044817545 0.96399999 2.3509884e-38
-0.065957889 -0.044817545 0.96399999 2.3048542e-38
-0.061729822 -0.0442538 0.96399999 2.3141458e-38
-0.058829237 -0.044191811 0.96266669 2.3049261e-38
-0.054007016 -0.044724561 0.96200001 2.2126221e-38
0.18857193 -0.031287719 0.96399999 2.1941837e-38
0.19408771 -0.031222807 0.96200001 2.1479782e-38
0.19864456 -0.031897895 0.96200001 2.148014e-38
0.2025263 -0.031222807 0.96200001 2.1111359e-38
0.20674561 -0.032066666 0.96199995 2.147978e-38
0.21012107 -0.031222807 0.96200001 2.083441e-38
0.18844037 -0.029576024 0.96333331 2.1757088e-38
0.19270043 -0.028735526 0.96350002 2.1296111e-38
0.19702806 -0.028750876 0.96399993 2.1203914e-38
0.20210175 -0.028750876 0.96399993 2.1111719e-38
0.20717545 -0.028750876 0.96399993 2.1296111e-38
0.21202897 -0.028720176 0.963 2.1112796e-38
0.21671402 -0.028883159 0.96280003 2.1112436e-38
0.2225886 -0.029142981 0.963 2.1111357e-38
0.22737417 -0.028345615 0.96257144 2.1019164e-38
0.23222224 -0.027865496 0.96266663 2.1019164e-38
0.23728888 -0.027865496 0.96266663 2.1019525e-38
0.24216557 -0.027656795 0.96274996 2.1204632e-38
0.24750789 -0.027030699 0.963 2.1296469e-38
0.25202239 -0.026595175 0.96249998 2.1296467e-38
