# .PCD v0.7 - Point Cloud Data file format
VERSION 0.7
FIELDS x y z rgb
SIZE 4 4 4 4
TYPE F F F F
COUNT 1 1 1 1
WIDTH 1076
HEIGHT 1
VIEWPOINT 0 0 0 1 0 0 0
POINTS 1076
DATA ascii
0.10483053 -0.64680731 1.7219999 1.7518243e-38
0.11228245 -0.64398772 1.722 1.7887744e-38
0.016615789 -0.63593155 1.722 1.6324398e-38
0.11751895 -0.63713998 1.7219999 1.7887743e-38
0.12537368 -0.63442105 1.722 1.7794466e-38
-0.0015105264 -0.6208263 1.722 1.6231492e-38
0.0037763158 -0.62762368 1.722 1.6322964e-38
0.010573684 -0.62988949 1.722 1.6139295e-38
0.13443685 -0.62837899 1.722 1.7425326e-38
0.14383568 -0.62317598 1.722 1.751752e-38
0.15256315 -0.6208263 1.722 1.7241292e-38
0.16162632 -0.6208263 1.722 1.7518952e-38
-0.0045315791 -0.61629474 1.722 1.6322247e-38
0.14689869 -0.61516184 1.722 1.7609363e-38
0.15558422 -0.61478424 1.722 1.7609716e-38
0.16162632 -0.61478418 1.722 1.7610074e-38
0.15601578 -0.60658419 1.722 1.7701553e-38
0.16464739 -0.60572106 1.722 1.7518244e-38
-0.018126316 -0.59514737 1.722 1.5124063e-38
0.15860526 -0.59967893 1.722 1.7701911e-38
0.16540262 -0.59892368 1.722 1.7518599e-38
0.17471753 -0.59262985 1.722 1.7886303e-38
0.18428421 -0.59212637 1.722 1.8163248e-38
0.20241053 -0.59061581 1.722 1.7609716e-38
-0.031721052 -0.58155262 1.722 1.4108475e-38
-0.025678948 -0.58558071 1.722 1.4569447e-38
0.17673159 -0.58608419 1.722 1.7702266e-38
0.18680175 -0.58558077 1.722 1.7702271e-38
0.1948579 -0.58457375 1.722 1.7701911e-38
0.20482738 -0.58396947 1.7219999 1.7794107e-38
0.21298422 -0.58155262 1.722 1.7886661e-38
-0.034742106 -0.57853156 1.722 1.3924438e-38
0.20794912 -0.57651752 1.722 1.7794466e-38
0.21298422 -0.5755105 1.722 1.7794464e-38
0.20996316 -0.56946844 1.722 1.7886656e-38
0.21600527 -0.56946844 1.722 1.7886661e-38
0.22557193 -0.56342632 1.722 1.7978501e-38
0.23337632 -0.5611605 1.722 1.8070338e-38
-0.06193158 -0.55134213 1.722 1.1984e-38
-0.055889476 -0.55436313 1.722 1.2079072e-38
0.22808947 -0.55738419 1.722 1.8162889e-38
0.23413157 -0.55738419 1.722 1.8071051e-38
0.2428171 -0.55398554 1.722 1.8255089e-38
-0.070994735 -0.54227895 1.722 1.1431179e-38
-0.064952634 -0.54454476 1.722 1.1431539e-38
0.24561158 -0.54560214 1.7219999 1.8531679e-38
0.25490135 -0.54492241 1.722 1.8347645e-38
0.26555055 -0.54409158 1.7219999 1.8716429e-38
0.27038422 -0.54681051 1.722 1.8439842e-38
-0.074015789 -0.53548157 1.722 1.106239e-38
-0.067973681 -0.53925788 1.722 1.1155305e-38
0.24822982 -0.53825086 1.722 1.8347641e-38
0.25527894 -0.53774738 1.722 1.8347281e-38
0.2643421 -0.53774738 1.722 1.8531672e-38
0.27491578 -0.53246051 1.722 1.8346923e-38
0.28246841 -0.53019476 1.722 1.8714987e-38
0.28624475 -0.52641845 1.722 1.8255092e-38
0.29354563 -0.52314562 1.722 1.8347285e-38
0.29656667 -0.51508945 1.722 1.862351e-38
0.30512634 -0.51357895 1.722 1.8531676e-38
0.31267896 -0.51206839 1.722 1.8809341e-38
0.29757369 -0.50904739 1.722 1.8716063e-38
0.30562982 -0.50703335 1.722 1.8716066e-38
0.31267896 -0.50602633 1.722 1.8900459e-38
0.32476315 -0.50451577 1.722 1.880826e-38
0.33181229 -0.50401229 1.722 1.8623868e-38
0.3096579 -0.49998423 1.722 1.9176691e-38
0.31656316 -0.49739477 1.722 1.8808257e-38
0.32506523 -0.49635893 1.7219999 1.8531669e-38
0.33475587 -0.49626595 1.722 1.8623872e-38
0.33760262 -0.48412368 1.722 1.8716789e-38
0.33866 -0.47521156 1.7219999 1.8808985e-38
0.34470206 -0.47460738 1.7219999 1.8808985e-38
0.35346317 -0.47279474 1.722 1.9084849e-38
0.34691754 -0.46775961 1.722 1.9084854e-38
0.35459608 -0.46561971 1.722 1.9084853e-38
0.36101577 -0.46222106 1.722 1.9360722e-38
0.35799474 -0.45768949 1.722 1.9636947e-38
0.36403683 -0.45768949 1.722 1.9268159e-38
0.3744427 -0.45433271 1.722 1.8807903e-38
0.38216314 -0.45164737 1.722 1.8624591e-38
0.37612104 -0.44560528 1.722 1.890046e-38
0.38291842 -0.44485003 1.722 1.9269957e-38
0.38639262 -0.43775052 1.7219999 1.936216e-38
0.39386973 -0.43314341 1.722 1.9454354e-38
0.40028948 -0.4305 1.722 1.9455076e-38
0.40482107 -0.42596841 1.722 1.9178129e-38
0.41539475 -0.42496136 1.722 1.9270683e-38
0.42294735 -0.42143682 1.722 1.936216e-38
0.42672366 -0.41615 1.722 1.8991575e-38
0.43201053 -0.41539478 1.722 1.3463035e-38
0.43150702 -0.40834561 1.722 7.9370624e-39
0.27340525 -0.39122632 1.722 8.2000034e-39
0.43805265 -0.39575791 1.722 1.9177404e-38
0.44560528 -0.39575791 1.722 1.8993736e-38
0.45164737 -0.39273685 1.722 1.9178485e-38
0.48487896 -0.39726844 1.722 5.6358122e-40
0.29153159 -0.38216314 1.722 7.650417e-39
0.45768949 -0.38669473 1.722 1.8808987e-38
0.46473858 -0.38468066 1.722 1.8624233e-38
0.29606315 -0.3776316 1.722 8.0184947e-39
0.30160174 -0.37108597 1.722 7.7422651e-39
0.46826315 -0.37612104 1.722 1.8624592e-38
0.47506052 -0.3708342 1.722 1.9085929e-38
0.4818579 -0.37158948 1.722 1.9178486e-38
0.30361578 -0.36554736 1.722 7.9241452e-39
0.4761934 -0.36441445 1.722 1.9270324e-38
0.4833684 -0.36403683 1.722 1.8994099e-38
-0.2401737 -0.35195264 1.722 9.4986904e-39
0.47883686 -0.35648423 1.722 1.9638389e-38
0.48487896 -0.35497373 1.722 1.9546194e-38
0.49333793 -0.35316107 1.7219999 1.9545471e-38
-0.24243948 -0.34666577 1.722 9.2203197e-39
0.48789999 -0.34893158 1.722 1.9270326e-38
0.49480525 -0.34677365 1.722 1.9453635e-38
0.50663054 -0.34409788 1.7219999 1.9269601e-38
0.51508945 -0.34288946 1.722 1.8993732e-38
0.53623682 -0.34591052 1.722 1.8900819e-38
0.54681051 -0.34288946 1.722 1.8716792e-38
0.55134213 -0.34288946 1.722 1.8625665e-38
-0.25376841 -0.3323158 1.722 1.0327386e-38
-0.24621578 -0.33785439 1.722 9.4969038e-39
0.49998423 -0.3383579 1.722 1.9269601e-38
0.50300527 -0.3383579 1.722 1.9361079e-38
0.51536411 -0.33574879 1.722 1.8808983e-38
0.52264214 -0.33382633 1.722 1.8993739e-38
0.53774738 -0.33533683 1.722 1.8808269e-38
0.54530001 -0.33533683 1.722 1.8716433e-38
0.55234909 -0.33533683 1.722 1.8716786e-38
0.51811051 -0.32778421 1.722 1.8993016e-38
0.5256632 -0.3255184 1.722 1.8993377e-38
0.53522986 -0.32442746 1.722 1.9177048e-38
0.54530001 -0.32476315 1.722 1.9084854e-38
0.55436313 -0.32476318 1.722 1.8993017e-38
0.5611605 -0.32400787 1.722 1.8900823e-38
0.29153159 -0.31872106 1.722 2.8735741e-39
0.53925788 -0.31872106 1.722 1.9361082e-38
0.5457316 -0.31656319 1.722 1.871643e-38
0.55436313 -0.31570002 1.722 1.899266e-38
0.56342632 -0.31494474 1.722 1.9085217e-38
0.5724895 -0.31267896 1.722 1.8994099e-38
-0.27340525 -0.3096579 1.722 1.2357869e-38
0.27189472 -0.30361578 1.722 7.8315993e-39
0.28246841 -0.3096579 1.722 6.7284859e-39
0.56672204 -0.3055383 1.722 1.899374e-38
0.5752359 -0.30471432 1.722 1.8809349e-38
0.58155262 -0.30059472 1.722 1.8993021e-38
-0.28397894 -0.29153159 1.722 1.162101e-38
0.070994735 -0.29153159 1.722 6.2671602e-39
0.10422631 -0.29153159 1.722 6.1720877e-39
0.24772632 -0.29153159 1.722 7.6486472e-39
0.26585263 -0.29757369 1.722 7.8337531e-39
0.27038422 -0.29153159 1.722 7.5586151e-39
0.56795788 -0.29606315 1.722 1.8901186e-38
0.5759421 -0.29541579 1.722 1.8900464e-38
0.58419603 -0.29417497 1.722 1.8992663e-38
0.59061581 -0.29304212 1.722 1.8901187e-38
-0.29253861 -0.28649649 1.722 1.2724131e-38
-0.28851053 -0.28851053 1.722 1.2266039e-38
0.056321055 -0.28462631 1.722 7.3738609e-39
0.06374421 -0.28669789 1.7219999 6.6363029e-39
0.074015789 -0.28851053 1.722 6.4529878e-39
0.084589474 -0.28851053 1.722 5.8061821e-39
0.095163159 -0.28851053 1.722 5.3466445e-39
0.10120527 -0.28851053 1.722 4.9778606e-39
0.12235264 -0.28548947 1.722 6.0802424e-39
0.14954211 -0.28246841 1.722 6.5408675e-39
0.15558422 -0.28246841 1.722 6.3582713e-39
0.16525158 -0.28428105 1.7219999 6.3582685e-39
0.17612736 -0.28307265 1.7219999 6.7263321e-39
0.18579473 -0.28246841 1.722 6.9118024e-39
0.19425368 -0.2836768 1.7219999 7.1880235e-39
0.2063379 -0.28307262 1.7219999 7.2805807e-39
0.21600527 -0.28548947 1.722 7.0050756e-39
0.22446421 -0.28428105 1.7219999 7.0972712e-39
0.2347358 -0.28669789 1.7219999 7.2809492e-39
0.24319474 -0.28775525 1.722 7.4653349e-39
0.58532894 -0.28775525 1.722 1.8993382e-38
0.59325922 -0.28511184 1.722 1.9270686e-38
-0.3046228 -0.27340528 1.722 1.0790178e-38
0.048336841 -0.27491578 1.722 8.2011105e-39
0.052868422 -0.27944738 1.722 7.5586151e-39
0.17219999 -0.27944738 1.722 6.9107318e-39
0.59665793 -0.27491581 1.722 1.8901905e-38
0.60496581 -0.27340528 1.722 1.8901905e-38
0.61327368 -0.27038422 1.722 1.8994102e-38
-0.31570002 -0.2643421 1.722 1.0422452e-38
0.045013681 -0.26494631 1.7219999 8.1099966e-39
0.59766489 -0.26534912 1.722 1.8992663e-38
0.60572106 -0.2643421 1.722 1.899302e-38
0.61478418 -0.2643421 1.722 1.8992658e-38
0.62494594 -0.26406744 1.722 1.8808269e-38
0.63291049 -0.26132104 1.722 1.8624947e-38
-0.32476315 -0.2560342 1.722 1.1156428e-38
0.034742106 -0.25225788 1.722 8.2929362e-39
0.042294733 -0.25678948 1.722 8.3840654e-39
0.60874212 -0.25830001 1.722 1.8347649e-38
0.61521578 -0.25614211 1.722 1.8808627e-38
0.62535793 -0.25527894 1.722 1.871679e-38
0.6336658 -0.25452369 1.722 1.8441278e-38
-0.33458161 -0.24394999 1.722 1.1802522e-38
0.026110528 -0.24233158 1.722 8.2950984e-39
0.031721052 -0.24772632 1.722 8.2943753e-39
0.61780524 -0.24420176 1.722 1.8624596e-38
0.62566 -0.24460457 1.722 1.8624595e-38
0.6353274 -0.24410105 1.7219999 1.871679e-38
-0.34288946 -0.23111053 1.722 1.1895072e-38
-0.33684736 -0.23715264 1.722 1.1617761e-38
0.016112281 -0.23312457 1.722 9.1212759e-39
0.024168421 -0.23715264 1.722 8.8464869e-39
0.61780524 -0.23715264 1.722 1.9545118e-38
0.62626421 -0.23443368 1.7219999 1.8532045e-38
0.63593155 -0.23413157 1.722 1.8625315e-38
0.64499474 -0.2341316 1.722 1.8625318e-38
0.65254736 -0.23262106 1.722 1.899338e-38
-0.34742105 -0.22355789 1.722 1.198801e-38
0.0075526317 -0.22355789 1.722 8.7542955e-39
0.012731579 -0.22549999 1.722 9.3982159e-39
0.62837899 -0.22808947 1.722 1.8439849e-38
0.63636309 -0.22593157 1.722 1.8808632e-38
0.64499474 -0.22506841 1.722 1.8809709e-38
0.65405786 -0.22506841 1.722 1.8993739e-38
0.66009998 -0.22204736 1.722 1.834873e-38
-0.3549737 -0.21499825 1.722 1.2356064e-38
-0.34893158 -0.21902633 1.722 1.1617786e-38
-0.0015105264 -0.21298422 1.722 8.7539381e-39
0.0055385963 -0.21499825 1.722 9.4010914e-39
0.01208421 -0.21902633 1.722 9.0323215e-39
0.64650524 -0.21902633 1.722 1.8901901e-38
0.654921 -0.21643685 1.722 1.8532762e-38
0.66463155 -0.21600531 1.722 1.843913e-38
-0.37310001 -0.20190702 1.722 1.2727373e-38
-0.36403683 -0.20895614 1.722 1.2358226e-38
-0.0045315791 -0.20543158 1.722 8.7532109e-39
0.0030210528 -0.20996316 1.722 9.1266485e-39
0.65556842 -0.2069421 1.722 1.8717155e-38
0.66506326 -0.20607893 1.722 1.8532403e-38
0.67477363 -0.20305789 1.722 1.8255096e-38
0.68351316 -0.20165527 1.722 1.8162545e-38
-0.37793368 -0.19546211 1.7219999 1.2819207e-38
-0.010573684 -0.19183685 1.722 1.0500245e-38
-0.0075526317 -0.19787894 1.722 9.4896857e-39
0.67520523 -0.19636841 1.722 1.8255456e-38
0.68426841 -0.1948579 1.722 1.8163262e-38
0.6948421 -0.19183685 1.722 1.8347288e-38
-0.38367367 -0.18277369 1.722 1.2265676e-38
-0.013930408 -0.18512338 1.722 9.2163316e-39
0.68728948 -0.18730526 1.722 1.8071068e-38
0.69470477 -0.18606938 1.722 1.8164337e-38
0.70498425 -0.18493159 1.722 1.8256897e-38
-0.39273685 -0.17219999 1.722 1.2173838e-38
-0.38719824 -0.17673159 1.722 1.2266031e-38
-0.022657895 -0.17371053 1.722 9.2156225e-39
-0.015918624 -0.17603442 1.722 9.8584696e-39
0.69419473 -0.17845789 1.722 1.7980307e-38
0.70541579 -0.17522104 1.722 1.8810428e-38
0.71145785 -0.17522106 1.722 1.8625675e-38
-0.40331051 -0.16162632 1.722 1.272665e-38
-0.39726844 -0.16464737 1.722 1.2173476e-38
-0.031721052 -0.16162632 1.722 9.5815338e-39
-0.024815792 -0.16421579 1.722 9.4896927e-39
-0.018428421 -0.16525157 1.7219999 9.0305138e-39
0.70662421 -0.1658558 1.7219999 1.8165059e-38
0.71410131 -0.16426975 1.722 1.8165063e-38
-0.41539475 -0.15357018 1.722 1.272665e-38
-0.044140935 -0.15491287 1.722 9.8573906e-39
-0.034742106 -0.1555842 1.722 1.0043229e-38
-0.026685962 -0.15659124 1.722 1.0133254e-38
0.71485656 -0.15596184 1.722 1.8256175e-38
0.72464067 -0.15530957 1.722 1.8256181e-38
0.73562622 -0.15407369 1.722 1.7979235e-38
-0.42244384 -0.1435 1.722 1.2909967e-38
-0.41690528 -0.14954211 1.722 1.2726649e-38
-0.052868422 -0.14349999 1.722 9.9535421e-39
-0.04561789 -0.14531262 1.722 9.3074538e-39
-0.035749126 -0.14752807 1.722 1.0319099e-38
0.7250526 -0.14803158 1.722 1.7888114e-38
0.73562622 -0.14501055 1.722 1.7795557e-38
0.74468946 -0.14501052 1.722 1.7519329e-38
0.75202626 -0.1456579 1.722 1.7518973e-38
-0.42747894 -0.13594738 1.722 1.2818128e-38
-0.054076843 -0.13383263 1.7219999 1.0686082e-38
-0.047689471 -0.13486843 1.722 1.0042857e-38
0.73864728 -0.13443685 1.722 1.8163618e-38
0.74431187 -0.13481447 1.722 1.7702284e-38
0.75073159 -0.13745789 1.722 1.7518614e-38
-0.43503159 -0.12386316 1.722 1.2634454e-38
-0.055511847 -0.12499606 1.722 1.0044662e-38
-0.048336845 -0.12537369 1.722 9.3063762e-39
0.74418598 -0.12537369 1.722 1.7795556e-38
0.75073159 -0.12235264 1.722 1.8717495e-38
0.78094208 -0.12235264 1.722 1.7889192e-38
0.80662107 -0.12386316 1.722 1.7334936e-38
-0.45164737 -0.11026842 1.722 1.3003589e-38
-0.44560528 -0.11832456 1.722 1.3003236e-38
-0.43956316 -0.11933158 1.722 1.2725931e-38
-0.062938601 -0.11127543 1.722 1.049989e-38
-0.056164119 -0.11521197 1.722 1.0134705e-38
-0.049847368 -0.11631053 1.722 8.938328e-39
0.74650204 -0.11691473 1.7219999 1.6597729e-38
0.75375265 -0.1148 1.722 1.0608587e-38
0.76583689 -0.11328948 1.7219999 1.8165417e-38
0.77527761 -0.11291184 1.722 1.7612244e-38
0.78094208 -0.11479999 1.722 1.7519689e-38
0.80511045 -0.1148 1.722 1.7243098e-38
0.81316662 -0.11463216 1.722 1.705907e-38
-0.4531579 -0.10573684 1.722 1.2542259e-38
-0.070994735 -0.10271579 1.722 1.0134339e-38
-0.064952642 -0.10422632 1.722 1.0317658e-38
-0.057702105 -0.10483053 1.7219999 1.0963014e-38
0.7688579 -0.10724737 1.722 1.7704079e-38
0.77489996 -0.10573684 1.722 1.7795556e-38
0.78245264 -0.10422632 1.722 1.7611521e-38
0.80511057 -0.10422632 1.722 1.7151261e-38
0.81266314 -0.10422631 1.722 1.7334934e-38
-0.46222106 -0.095163152 1.722 1.2634093e-38
-0.080057897 -0.093652636 1.722 9.9506638e-39
-0.073584206 -0.094300009 1.722 9.7673572e-39
-0.064952627 -0.095163159 1.722 9.6755217e-39
0.78698421 -0.096673682 1.722 1.7333863e-38
0.79302633 -0.093652636 1.722 1.7334938e-38
0.80571479 -0.096975788 1.7219999 1.7151264e-38
0.8151806 -0.096170165 1.722 1.7243101e-38
0.82474738 -0.095163159 1.722 1.6874321e-38
0.83494335 -0.095540792 1.722 1.7057996e-38
-0.47430527 -0.08156842 1.722 1.2633014e-38
-0.46826315 -0.087610528 1.722 1.2448986e-38
-0.081784211 -0.083078943 1.722 9.3067322e-39
-0.074015789 -0.084589474 1.722 9.7659265e-39
-0.065707892 -0.088365793 1.722 1.1236732e-38
0.8171947 -0.089121051 1.722 1.7426772e-38
0.82565367 -0.086402103 1.7219999 1.7242383e-38
0.83504641 -0.084177501 1.722 1.6873965e-38
0.84352106 -0.082647368 1.722 1.7242383e-38
-0.48336843 -0.072505265 1.722 1.2358225e-38
-0.47782984 -0.076029822 1.722 1.2357866e-38
-0.093149126 -0.072001755 1.722 1.0043213e-38
-0.084177509 -0.073741153 1.722 1.004358e-38
-0.075828418 -0.074620001 1.7219999 9.8595542e-39
0.83532101 -0.074015796 1.722 1.6782843e-38
0.84438419 -0.074015789 1.722 1.7242741e-38
0.85405159 -0.073713683 1.7219999 1.6781405e-38
0.86251056 -0.070994735 1.722 1.6321498e-38
-0.49243158 -0.063442111 1.722 1.2357146e-38
-0.48789999 -0.067973681 1.722 1.2541181e-38
-0.095163159 -0.064952627 1.722 9.9513911e-39
-0.085193679 -0.065556847 1.7219999 9.8591927e-39
-0.077036843 -0.067973681 1.722 9.5844023e-39
0.83733511 -0.06696666 1.722 1.6875395e-38
0.84438419 -0.06646315 1.722 1.6782126e-38
0.85495782 -0.064952619 1.722 1.6598087e-38
0.86510003 -0.064089477 1.722 1.6505529e-38
0.87459475 -0.063442111 1.722 1.6137119e-38
-0.50300527 -0.052868422 1.722 1.2172755e-38
-0.4984737 -0.058910526 1.722 1.2448984e-38
-0.093652636 -0.055889476 1.722 9.4907773e-39
-0.088114031 -0.05790351 1.722 9.9503051e-39
0.85546136 -0.056896493 1.722 1.6506251e-38
0.86553162 -0.055889472 1.722 1.6412623e-38
0.87459481 -0.055889472 1.722 1.6229309e-38
0.88214731 -0.055889476 1.722 1.641334e-38
-0.51206839 -0.04380526 1.722 1.2449339e-38
-0.50804037 -0.046826314 1.722 1.2080559e-38
-0.10120527 -0.04078421 1.722 9.8584682e-39
-0.09549883 -0.045483623 1.722 9.8584682e-39
0.86553162 -0.045315787 1.722 1.6505177e-38
0.87459469 -0.045315791 1.722 1.6412983e-38
0.88214731 -0.045315787 1.722 1.6505177e-38
-0.5221386 -0.032728072 1.722 1.2080559e-38
-0.51660001 -0.036252633 1.722 1.2173111e-38
-0.11177894 -0.031721052 1.722 1.0593538e-38
-0.10336316 -0.034310527 1.722 1.0500254e-38
-0.098184206 -0.034742106 1.722 1.0868311e-38
0.8663947 -0.035173688 1.722 1.6598093e-38
0.87459469 -0.036554735 1.7219999 1.64137e-38
0.88214737 -0.034742106 1.722 1.6598452e-38
-0.52566314 -0.027189475 1.722 1.1896525e-38
-0.11328948 -0.025678946 1.722 9.9503135e-39
-0.10422632 -0.025678946 1.722 9.949959e-39
-0.098184206 -0.028700002 1.722 1.0132557e-38
-0.53623682 -0.013594736 1.722 1.1712123e-38
-0.11415263 -0.014673683 1.722 9.4922052e-39
-0.10498158 -0.016615788 1.722 9.9510212e-39
-0.54378951 -0.0030210528 1.722 1.1802525e-38
-0.12356105 -0.0039273687 1.7219999 9.1234213e-39
-0.11597485 -0.0052029244 1.722 1.004143e-38
-0.55134213 0.0075526317 1.722 1.1341548e-38
-0.54832107 0.0030210528 1.722 1.1525938e-38
-0.14198947 0.0075526317 1.722 8.4758869e-39
-0.13383263 0.0063442113 1.7219999 8.1978777e-39
-0.1263807 0.0035245614 1.722 8.3837053e-39
-0.56191576 0.019636841 1.722 1.1065678e-38
-0.55436313 0.01435 1.722 1.1249708e-38
-0.15256315 0.018126316 1.722 9.1237772e-39
-0.14501053 0.015105262 1.7219999 9.3978642e-39
-0.13443685 0.012084211 1.722 9.7641188e-39
-0.12839474 0.010573684 1.722 9.3042196e-39
-0.56946844 0.028700002 1.722 1.0883075e-38
-0.1545772 0.026685968 1.722 9.8570263e-39
-0.14833368 0.025074739 1.7219999 9.4000082e-39
-0.5755105 0.033231579 1.722 1.0974556e-38
-0.16263334 0.036756143 1.722 9.488971e-39
-0.15739684 0.034137897 1.7219999 9.9492275e-39
-0.59061581 0.046826314 1.722 1.0790889e-38
-0.58759475 0.046826314 1.722 1.0422467e-38
-0.17219999 0.049847368 1.722 8.5673735e-39
-0.16507895 0.045531578 1.722 8.9368748e-39
-0.15860526 0.04078421 1.722 1.004321e-38
-0.59665787 0.055889476 1.722 1.0606851e-38
-0.17220001 0.055889476 1.722 7.8326825e-39
-0.16646001 0.055285264 1.7219999 8.5688084e-39
-0.60572106 0.067973681 1.722 1.0330266e-38
-0.59967893 0.064952634 1.722 1.0330622e-38
-0.18277369 0.066463158 1.722 7.3724162e-39
-0.17522106 0.064952634 1.7219999 7.5564501e-39
-0.36101577 0.077036843 1.722 6.5044912e-40
-0.35799474 0.074015789 1.722 4.6316838e-40
-0.19410263 0.076281577 1.722 6.6334036e-39
-0.18579476 0.073512278 1.722 6.8185221e-39
-0.17874561 0.072001755 1.722 6.7270524e-39
-0.61780524 0.080057897 1.722 1.0238425e-38
-0.37007895 0.086100005 1.722 1.1121279e-39
-0.36328155 0.083834216 1.722 1.2918641e-39
-0.20324971 0.085764326 1.722 5.3415956e-39
-0.19687194 0.08106491 1.722 6.2635477e-39
-0.36202279 0.097177185 1.722 3.9579661e-39
-0.35799474 0.095163159 1.722 7.0868932e-39
-0.21373948 0.095918417 1.722 4.3299646e-39
-0.20660643 0.09449181 1.722 4.6973024e-39
-0.64197367 0.10724737 1.722 1.0236624e-38
-0.63895261 0.10724737 1.722 9.9603945e-39
-0.37272239 0.10460395 1.722 7.3939093e-40
-0.23111053 0.10724737 1.722 1.3271071e-38
-0.22506841 0.10472983 1.722 3.4072936e-39
-0.2175158 0.10120527 1.722 4.6973052e-39
-0.64620316 0.11631052 1.7219999 9.7774507e-39
-0.37209302 0.1153035 1.722 7.3708299e-43
-0.36554733 0.11631053 1.722 3.4958725e-39
-0.23111053 0.11328948 1.722 1.5019202e-38
-0.22808947 0.11328948 1.722 5.5306798e-39
-0.65179211 0.12612894 1.722 9.4997792e-39
-0.6480158 0.12235264 1.722 1.0054031e-38
-0.37310001 0.12537368 1.722 3.4994416e-39
-0.36554733 0.12537368 1.722 7.0925783e-39
-0.3640368 0.13443683 1.722 9.858415e-39
-0.66674632 0.14410421 1.7219999 2.680555e-39
-0.37007895 0.14803158 1.722 6.1641312e-39
-0.36403683 0.14501053 1.722 9.3981641e-39
-0.67419821 0.15659122 1.722 1.3883841e-39
-0.66916317 0.15256315 1.722 1.0206764e-39
-0.37128738 0.15618843 1.7219999 7.0893189e-39
-0.36441445 0.15520656 1.722 9.1211988e-39
-0.35799474 0.1555842 1.722 9.4921492e-39
-0.68124735 0.16162632 1.722 1.6635248e-39
-0.37158948 0.16162632 1.722 6.7266236e-39
-0.36554736 0.16162632 1.722 7.460953e-39
-0.37310001 0.17371053 1.722 1.4758938e-39
-0.36403683 0.17371053 1.722 3.4897783e-39
-0.71145791 0.1948579 1.722 2.0315829e-39
-0.70843685 0.19636843 1.722 1.7557177e-39
-0.71145785 0.2009 1.722 2.0290648e-39
-0.7042073 0.20271263 1.7219999 1.8453924e-39
-0.69592106 0.20651053 1.722 1.7542673e-39
-0.68728948 0.20996316 1.722 1.2029012e-39
-0.20435263 0.20262633 1.722 7.0043427e-39
-0.1948579 0.20392105 1.7219999 4.8791657e-39
-0.18881579 0.2069421 1.722 4.9713627e-39
-0.68275791 0.2175158 1.722 1.7560736e-39
-0.1839821 0.21540105 1.7219999 4.8809636e-39
-0.17975263 0.2175158 1.722 4.7898568e-39
-0.68275785 0.22204736 1.722 1.7564267e-39
-0.67520523 0.22657895 1.722 1.572397e-39
-0.66571051 0.22420527 1.722 2.3070922e-39
-0.17371053 0.22406141 1.722 4.9735193e-39
-0.16766842 0.22808947 1.722 5.0653548e-39
-0.67563683 0.23326842 1.722 1.9393873e-39
-0.66161048 0.23413159 1.722 2.5843923e-39
-0.16263334 0.23413157 1.722 5.2501062e-39
-0.15860526 0.23715264 1.722 5.1589896e-39
-0.66161048 0.2401737 1.722 2.6744314e-39
-0.65587056 0.24682 1.7219999 2.4000109e-39
-0.15256315 0.2401737 1.722 5.6167406e-39
-0.14410421 0.24682 1.7219999 4.9731592e-39
-0.65330261 0.2560342 1.722 1.8479147e-39
-0.14047895 0.25225788 1.722 5.249386e-39
-0.13443685 0.25578249 1.722 5.2493902e-39
-0.12839474 0.25830001 1.722 5.2490356e-39
-0.65103686 0.26283157 1.722 2.1241401e-39
-0.6480158 0.2643421 1.722 2.1245016e-39
-0.63744211 0.26736316 1.722 1.5716823e-39
-0.13141578 0.2643421 1.722 5.2493902e-39
-0.1263807 0.26534912 1.722 5.2493888e-39
-0.64298069 0.27139124 1.722 1.481286e-39
-0.63623369 0.2740095 1.7219999 1.9397446e-39
-0.12461843 0.27113947 1.722 5.1568288e-39
-0.1148 0.27280107 1.7219999 5.3412285e-39
-0.10422632 0.27189475 1.722 5.8940407e-39
-0.095594741 0.27426842 1.722 5.8944036e-39
-0.085001431 0.27670094 1.722 5.7103739e-39
-0.074619994 0.27823895 1.7219999 5.8940463e-39
-0.066463158 0.27944738 1.722 5.8025695e-39
-0.63472319 0.28428105 1.7219999 2.1241401e-39
-0.62636489 0.28750351 1.722 1.8479133e-39
-0.080057897 0.28246841 1.722 5.4352262e-39
-0.073411576 0.2836768 1.7219999 5.894405e-39
-0.065330267 0.28586712 1.722 5.6185426e-39
-0.05790351 0.28750351 1.722 5.2504692e-39
-0.6208263 0.29153159 1.722 2.2159798e-39
-0.61538845 0.29515687 1.7219999 2.4922065e-39
-0.06193158 0.29153159 1.722 5.1608029e-39
-0.055134214 0.29228684 1.722 5.4348716e-39
-0.046826314 0.29404911 1.722 5.8944106e-39
-0.61176312 0.30059472 1.722 1.9401131e-39
-0.60692948 0.30603263 1.7219999 2.677318e-39
-0.04078421 0.30059472 1.722 5.9866021e-39
-0.034742106 0.30361578 1.722 6.0795166e-39
-0.027189475 0.30814737 1.722 6.4482893e-39
-0.6027 0.31267896 1.722 2.4925568e-39
-0.59741318 0.31796581 1.722 2.3085257e-39
-0.022657895 0.31267896 1.722 6.1709933e-39
-0.018126316 0.31569999 1.722 5.8954854e-39
-0.59277362 0.32433155 1.722 2.4003612e-39
-0.58759475 0.32476315 1.722 2.4925568e-39
-0.0075526317 0.32778421 1.722 6.3557433e-39
-0.58396947 0.3320137 1.7219999 2.7684291e-39
-0.57732308 0.33563897 1.7219999 2.95247e-39
-0.0030210528 0.33533686 1.722 6.1713521e-39
0.0015105264 0.33986843 1.722 5.1615063e-39
-0.574 0.34591052 1.722 2.8588212e-39
-0.56584316 0.34832737 1.7219999 2.2159685e-39
-0.55436313 0.34893158 1.722 2.1237897e-39
0.0065456145 0.34389648 1.722 5.6199677e-39
0.015105262 0.3481763 1.722 5.0667982e-39
-0.5724895 0.35195264 1.722 1.9411697e-39
-0.56428945 0.35324737 1.722 1.7560722e-39
-0.55436313 0.3549737 1.722 2.2152553e-39
0.019636841 0.35195264 1.722 5.5259743e-39
0.025678948 0.35195264 1.722 5.8025597e-39
0.035497371 0.35270789 1.722 5.8025639e-39
0.04430877 0.35698774 1.722 5.3430277e-39
0.055889472 0.35799471 1.722 5.7103781e-39
0.064952634 0.35799471 1.722 5.8954784e-39
-0.54681051 0.36705789 1.722 2.3085257e-39
0.048336841 0.36101577 1.722 5.4355765e-39
0.056493681 0.36222419 1.7219999 5.6188972e-39
0.065384209 0.36317369 1.722 5.8943952e-39
0.073260531 0.36630264 1.722 5.9865993e-39
0.080057897 0.36705789 1.722 6.1713437e-39
-0.54530001 0.37461054 1.722 1.8482608e-39
-0.53925788 0.37914211 1.722 2.4925568e-39
0.074015789 0.37007895 1.722 5.986958e-39
0.08523684 0.37223688 1.722 6.1691871e-39
0.095163159 0.37461054 1.722 5.7107242e-39
0.10347106 0.37536579 1.722 5.4352164e-39
0.1148 0.37612107 1.722 5.1611504e-39
0.12537368 0.37763157 1.722 5.1607917e-39
0.13141578 0.37914211 1.722 5.4352262e-39
-0.54409158 0.3839758 1.7219999 2.3081684e-39
-0.53590119 0.38585556 1.722 2.9520959e-39
0.13594738 0.38216314 1.722 5.8040087e-39
0.14501053 0.3851842 1.722 6.0809459e-39
0.15558422 0.38820526 1.722 6.3571797e-39
0.16464737 0.38820526 1.722 6.6326946e-39
-0.5430342 0.39500263 1.722 2.4010927e-39
-0.53472632 0.39424738 1.722 2.4922023e-39
-0.52515966 0.3952544 1.722 2.1241373e-39
-0.51811051 0.39726844 1.722 2.6773082e-39
0.17471755 0.39475086 1.722 6.2646267e-39
-0.54378951 0.40482107 1.722 2.5854699e-39
-0.53472632 0.40482104 1.722 2.4925568e-39
-0.52415258 0.40482104 1.722 2.6758747e-39
-0.51710349 0.40582809 1.722 3.1368557e-39
0.18654999 0.40104473 1.722 6.7256006e-39
0.1948579 0.40431753 1.722 6.6344854e-39
0.20241053 0.40935263 1.722 6.4508074e-39
-0.53422284 0.41438779 1.722 2.1248533e-39
-0.52415258 0.41539478 1.722 2.4007269e-39
-0.51735526 0.41463947 1.722 2.5833245e-39
0.2063379 0.41479054 1.7219999 6.449734e-39
0.21600527 0.41841581 1.722 6.2660644e-39
0.24923684 0.41841581 1.722 5.3491668e-39
0.25225788 0.41841581 1.722 4.4268504e-39
-0.52415264 0.42294732 1.722 2.4007269e-39
-0.51508945 0.42395437 1.722 2.675516e-39
-0.50663054 0.42627048 1.7219999 2.4925638e-39
-0.49998423 0.42747894 1.722 2.3081754e-39
0.21676053 0.42219207 1.722 6.2649826e-39
0.22431314 0.42672366 1.722 6.9096402e-39
0.24923684 0.42445788 1.722 5.6257355e-39
0.25427189 0.4254649 1.722 4.9800242e-39
-0.50542212 0.43170843 1.7219999 2.675146e-39
-0.49847373 0.43503162 1.722 2.3989109e-39
0.22708245 0.43150702 1.722 6.8188865e-39
0.2341316 0.43452805 1.722 6.8196138e-39
0.2411807 0.43855616 1.722 6.7288489e-39
0.25527894 0.4305 1.722 5.7157843e-39
-0.4949491 0.44661233 1.722 1.5720341e-39
-0.46171752 0.44761929 1.722 3.5023774e-39
-0.45466843 0.44741789 1.7219999 6.6337469e-39
-0.44620949 0.44741789 1.7219999 8.6591543e-39
-0.43654212 0.44862637 1.722 7.829751e-39
0.23715264 0.44560528 1.722 6.7281314e-39
0.2411807 0.44359121 1.722 6.637012e-39
-0.49243158 0.45164737 1.722 1.7560736e-39
-0.48487899 0.45517191 1.722 1.8486168e-39
-0.47581577 0.4546684 1.722 1.8482664e-39
-0.46524212 0.45466837 1.722 2.7673487e-39
-0.4546684 0.4546684 1.722 5.8958372e-39
-0.4459829 0.45429081 1.722 8.3839967e-39
-0.43461961 0.45439374 1.722 7.9215837e-39
-0.42445788 0.45768949 1.722 8.1974601e-39
0.23413157 0.45391315 1.722 6.1749576e-39
-0.4818579 0.46071053 1.722 2.306711e-39
-0.47581577 0.46222103 1.722 2.0312144e-39
-0.46524212 0.46524212 1.722 2.9531678e-39
-0.45527261 0.46463794 1.7219999 4.2377844e-39
-0.44862634 0.46071053 1.722 9.2123183e-39
-0.43291682 0.46463791 1.7219999 7.9215781e-39
-0.42445788 0.46524212 1.722 8.1059749e-39
-0.41740879 0.46876669 1.722 8.1063337e-39
0.22469078 0.46561971 1.722 5.3451997e-39
0.23111053 0.46222106 1.722 5.529591e-39
-0.46433577 0.47339898 1.7219999 2.9520973e-39
-0.45617896 0.47279474 1.722 3.3176512e-39
-0.42445788 0.47581577 1.722 8.0137821e-39
-0.41539475 0.47581577 1.722 8.106698e-39
-0.4078421 0.47732633 1.722 7.9223053e-39
0.2175158 0.47732633 1.722 3.5027375e-39
0.22204736 0.47279474 1.722 4.5150831e-39
-0.42219207 0.48412371 1.722 7.9219438e-39
-0.41582635 0.48401579 1.722 8.0141422e-39
-0.40572733 0.48518103 1.7219999 7.6471576e-39
0.2175158 0.4818579 1.722 2.8591814e-39
-0.40482104 0.49545264 1.722 7.6471562e-39
-0.39726844 0.49545264 1.722 7.2776646e-39
-0.40028948 0.50300527 1.722 7.6460842e-39
-0.39511055 0.50645792 1.722 6.8188346e-39
-0.39364317 0.51327676 1.7219999 6.9074233e-39
-0.38820526 0.51660001 1.722 5.8017974e-39
-0.38291842 0.52339739 1.722 4.1483872e-39
-0.38216314 0.53019476 1.722 4.1458971e-39
-0.37461054 0.56946844 1.722 4.0558874e-39
-0.35195264 0.56795788 1.722 3.5949051e-39
-0.34893158 0.56493682 1.722 3.7800208e-39
-0.3708342 0.57475525 1.722 8.3194389e-40
-0.36403683 0.57853156 1.722 1.0192078e-39
-0.35396668 0.57651752 1.722 1.661706e-39
-0.34677368 0.5759421 1.722 1.3876358e-39
-0.37612107 0.58457369 1.722 6.5114977e-40
-0.36360526 0.58371055 1.722 1.0181316e-39
-0.3549737 0.58457369 1.722 1.1110475e-39
-0.34591052 0.58457369 1.722 1.571318e-39
-0.3383579 0.58759475 1.722 1.8479091e-39
-0.35497367 0.59061581 1.722 1.4783923e-39
-0.34530634 0.59454316 1.7219999 2.0308514e-39
-0.33563897 0.5950467 1.722 2.1234086e-39
-0.34364471 0.60496581 1.722 1.480193e-39
-0.33533689 0.60572106 1.722 1.8486097e-39
-0.32514077 0.60609865 1.722 1.4798314e-39
-0.31872106 0.60874212 1.722 1.6620647e-39
-0.33080527 0.61478418 1.722 1.3879875e-39
-0.32476312 0.61478424 1.722 1.3879917e-39
-0.31613159 0.61564738 1.722 1.6631493e-39
-0.30739212 0.61704999 1.722 2.0297864e-39
-0.31570002 0.62233686 1.722 1.7564239e-39
-0.30512631 0.62535793 1.722 1.7557023e-39
-0.29627895 0.62600523 1.722 2.1226869e-39
-0.30210525 0.63442105 1.722 1.2954402e-39
-0.29493025 0.63630927 1.722 1.9393775e-39
-0.28851053 0.63895261 1.722 1.479128e-39
-0.29228687 0.64423949 1.722 2.4007185e-39
-0.287 0.64499474 1.722 1.4801958e-39
-0.28548947 0.6530509 1.722 1.4798314e-39
-0.27944738 0.65707898 1.722 1.2958003e-39
-0.28246841 0.66463155 1.722 1.6624276e-39
-0.27815264 0.66527891 1.722 1.9397334e-39
-0.28246841 0.67520523 1.722 1.9390047e-39
-0.27491581 0.67520529 1.722 1.7553351e-39
-0.27552003 0.6836642 1.7219999 1.8482538e-39
-0.26494631 0.68487263 1.7219999 1.4794615e-39
-0.25830001 0.68728948 1.722 2.0301185e-39
-0.26283157 0.69182104 1.722 1.388705e-39
-0.25678948 0.6918211 1.722 1.4801902e-39
0.065593861 -0.6833964 1.739 1.0054366e-38
0.071365789 -0.68177104 1.7309999 4.7650454e-40
0.06498158 -0.67486054 1.7344286 2.7802574e-39
0.071365789 -0.67569733 1.7309999 1.3969642e-39
0.028916668 -0.660514 1.7349999 1.6783584e-38
0.033559646 -0.66356575 1.739 1.6782861e-38
0.041186843 -0.66661662 1.739 1.6324038e-38
0.059492104 -0.66509122 1.739 2.9599613e-39
0.065635338 -0.66442448 1.7344284 1.0145481e-38
0.073727772 -0.66388744 1.7309999 1.7056909e-38
0.080476314 -0.66203153 1.7309999 1.7517519e-38
0.025813157 -0.65292108 1.7309999 1.6508069e-38
0.059492104 -0.65746403 1.739 7.2849037e-39
0.065593861 -0.65441316 1.7390001 1.7794108e-38
0.074600883 -0.65467602 1.7356668 1.7609713e-38
0.084303357 -0.65393001 1.7316666 1.7701913e-38
0.092623681 -0.65140265 1.7309999 1.7702267e-38
0.024350876 -0.64681667 1.7349999 1.6507353e-38
0.065593861 -0.64526051 1.7390001 1.7610432e-38
0.07474649 -0.64526051 1.7390001 1.7701913e-38
0.085124552 -0.64531183 1.7329998 1.7701915e-38
0.09566053 -0.64532894 1.7309999 1.7518242e-38
0.10433722 -0.64446121 1.7309999 1.7702637e-38
0.11084473 -0.64381051 1.7309999 1.797958e-38
0.0060964911 -0.63080347 1.737 1.6322965e-38
0.015448244 -0.6357016 1.7367142 1.6323321e-38
0.066814207 -0.63732827 1.739 1.7610076e-38
0.075023837 -0.6349985 1.7390002 1.7702271e-38
0.084376894 -0.63512498 1.7363334 1.7793752e-38
0.094654441 -0.63470197 1.7360526 1.7886305e-38
0.10460977 -0.63456285 1.7322305 1.8071421e-38
0.11474925 -0.6342662 1.7309998 1.7887743e-38
0.12602894 -0.63166314 1.7309999 1.7610074e-38
-0.001518421 -0.62103415 1.7309999 1.6322608e-38
0.0025377192 -0.62402016 1.7336665 1.6231132e-38
0.097628072 -0.62695527 1.739 1.7979946e-38
0.10576718 -0.62485009 1.7374001 1.8072139e-38
0.11530684 -0.6240015 1.7342 1.7794464e-38
0.12602895 -0.624071 1.7309999 1.761043e-38
0.13513947 -0.624071 1.7309999 1.7517523e-38
0.14121315 -0.62103415 1.7309999 1.7609363e-38
-0.0027345612 -0.61491877 1.7326 1.623005e-38
0.0015230995 -0.61685055 1.7363333 1.6138932e-38
0.10754342 -0.61551452 1.739 1.7609365e-38
0.1154165 -0.61506575 1.7375455 1.779447e-38
0.12503475 -0.61419219 1.7334615 1.7426043e-38
0.13513947 -0.61496043 1.7309999 1.7701192e-38
0.14323772 -0.61394817 1.7309999 1.7240579e-38
0.15032367 -0.61192364 1.7309999 1.7701558e-38
-0.013665789 -0.60584998 1.7309999 1.5584687e-38
0.11562824 -0.60681945 1.739 1.7701915e-38
0.12493684 -0.60566175 1.7370001 1.7701911e-38
0.13513947 -0.60584998 1.7309999 1.7609353e-38
0.14425001 -0.60584998 1.7309999 1.7517164e-38
0.15292668 -0.60498238 1.7309999 1.7609718e-38
-0.018277192 -0.59400409 1.7363334 1.466272e-38
0.12790106 -0.59647745 1.7381111 1.7609355e-38
0.13563912 -0.59589207 1.7374002 1.7793745e-38
0.14473796 -0.59570819 1.7368667 1.79785e-38
0.15493688 -0.59517097 1.7343682 1.7886304e-38
0.16523182 -0.59480691 1.7310001 1.7702626e-38
0.17158158 -0.59066576 1.7309999 1.7702618e-38
-0.025852926 -0.58346033 1.7336667 1.3464537e-38
-0.0198307 -0.58729386 1.739 1.364785e-38
0.13779795 -0.58627695 1.739 1.7793744e-38
0.1453525 -0.58511466 1.7390001 1.7609718e-38
0.15460578 -0.58458155 1.7381999 1.7978142e-38
0.16467409 -0.58529592 1.7339091 1.7886661e-38
0.17418458 -0.58372444 1.7309999 1.7702267e-38
0.18448815 -0.5834533 1.7309999 1.7609358e-38
0.19587632 -0.58155525 1.7309999 1.7701911e-38
0.20195 -0.58155525 1.7309999 1.7794463e-38
-0.042614035 -0.57376409 1.7349999 1.3001401e-38
-0.035004385 -0.5783298 1.735 1.3371264e-38
0.14796753 -0.57814121 1.739 1.7609718e-38
0.15593946 -0.57585365 1.7372222 1.7978507e-38
0.16507329 -0.57503712 1.7355715 1.8070694e-38
0.17500421 -0.57513732 1.7318001 1.7794108e-38
0.18462731 -0.57566828 1.7323335 1.7701913e-38
0.19535665 -0.57544243 1.7318001 1.7793745e-38
0.20460722 -0.57510191 1.7309999 1.7794101e-38
0.15712017 -0.56746316 1.739 1.8162892e-38
0.16525584 -0.56695467 1.7390001 1.78863e-38
0.17500263 -0.56656861 1.7375455 1.7885585e-38
0.18541843 -0.56657052 1.7359232 1.770155e-38
0.19539061 -0.56553155 1.7344286 1.7977778e-38
0.20498686 -0.5648526 1.7309999 1.788594e-38
0.21409737 -0.56485265 1.7309999 1.7978138e-38
0.22206907 -0.56371379 1.7309999 1.7978502e-38
-0.058527634 -0.55257934 1.7329999 1.1615935e-38
0.17542543 -0.55983591 1.739 1.8160734e-38
0.18534079 -0.55907321 1.739 1.8252923e-38
0.19525613 -0.5552597 1.7390002 1.8069976e-38
0.20539466 -0.55497718 1.7368182 1.8070694e-38
0.21409737 -0.55422372 1.7309999 1.8070336e-38
0.2247263 -0.55422372 1.7309999 1.8070336e-38
0.23535527 -0.55422372 1.7309999 1.8162891e-38
-0.063587897 -0.5442903 1.7341999 1.1063115e-38
0.18762894 -0.54305613 1.739 1.8070339e-38
0.19525611 -0.54458147 1.7390002 1.7978137e-38
0.20614314 -0.54493839 1.7381999 1.8162887e-38
0.21458977 -0.54484499 1.735 1.8071055e-38
0.22445418 -0.54483753 1.7316152 1.8071057e-38
0.23535527 -0.54511315 1.7309999 1.8255808e-38
0.24218816 -0.54435396 1.7309999 1.8439842e-38
-0.074540175 -0.53516579 1.7341999 1.0786163e-38
-0.06848684 -0.53875965 1.7349999 1.0878358e-38
0.18762894 -0.5384798 1.739 1.8254735e-38
0.19567214 -0.53570634 1.7390002 1.8162891e-38
0.20593421 -0.53542894 1.7390001 1.8255088e-38
0.21508686 -0.53542894 1.7390001 1.8347282e-38
0.22500962 -0.53611577 1.7359232 1.8347642e-38
0.2344436 -0.53562099 1.7324544 1.862423e-38
0.24457876 -0.53564018 1.7318001 1.8439475e-38
0.25509471 -0.53448421 1.7309999 1.8162529e-38
0.26572368 -0.53448421 1.7309999 1.7978145e-38
0.27090001 -0.53267193 1.7349999 1.7978146e-38
-0.081741221 -0.52648157 1.7363333 1.0232989e-38
0.19678158 -0.52780175 1.739 1.8346563e-38
0.2051715 -0.52856445 1.739 1.843912e-38
0.21584956 -0.52856445 1.739 1.8346209e-38
0.22491744 -0.52593732 1.7390001 1.8807904e-38
0.23487069 -0.5253129 1.736895 1.8439122e-38
0.24527478 -0.52514374 1.7367141 1.8069974e-38
0.25516266 -0.5248062 1.7331051 1.8162169e-38
0.26412222 -0.52395576 1.7331818 1.8162535e-38
0.2744863 -0.52531224 1.7368947 1.8347641e-38
0.28451651 -0.52440202 1.7359232 1.825581e-38
0.29153684 -0.52233684 1.7309999 1.8439482e-38
0.23644298 -0.51407284 1.7390001 1.7978502e-38
0.24559562 -0.51407278 1.7390001 1.8255442e-38
0.25474826 -0.51407278 1.7390001 1.8346919e-38
0.26390088 -0.51407278 1.7390001 1.8531672e-38
0.27499497 -0.51435018 1.7390002 1.8439839e-38
0.28525701 -0.51407278 1.7390001 1.8439841e-38
0.29302415 -0.51406783 1.7324544 1.8716069e-38
0.23949386 -0.50797105 1.739 1.8347634e-38
0.24646728 -0.50535601 1.7390001 1.8439475e-38
0.25518408 -0.50579184 1.7390001 1.8439836e-38
0.26390088 -0.50492018 1.7390001 1.8439836e-38
0.27610439 -0.50644565 1.739 1.862387e-38
0.28569287 -0.50579184 1.7390001 1.8532394e-38
0.29562813 -0.50537342 1.7365386 1.8716426e-38
0.30520263 -0.50411576 1.7309999 1.8900097e-38
0.25657877 -0.49515733 1.739 1.8530954e-38
0.26390088 -0.49576747 1.7390001 1.8347279e-38
0.29488155 -0.49614683 1.7382002 1.8716785e-38
0.30492166 -0.4962202 1.7363335 1.8900819e-38
0.31399491 -0.4948512 1.7326 1.8900463e-38
0.32429132 -0.49175146 1.7309999 1.8623869e-38
0.33455876 -0.49146226 1.7309999 1.8623514e-38
0.25779912 -0.48966581 1.739 1.8346928e-38
0.26390085 -0.48966584 1.739 1.8254728e-38
0.30574146 -0.48835823 1.7390001 1.8716428e-38
0.31604314 -0.48550555 1.7390002 1.8623873e-38
0.32583418 -0.48494679 1.7374002 1.8715709e-38
0.33470339 -0.48394245 1.7309999 1.8716426e-38
0.31759632 -0.47502154 1.739 1.8715353e-38
0.32537633 -0.47480053 1.7381999 1.890046e-38
0.33364141 -0.47440168 1.7339089 1.9085211e-38
0.34164473 -0.47222894 1.7309999 1.9361077e-38
0.31881666 -0.46830967 1.739 1.8809706e-38
0.32491842 -0.46678424 1.739 1.9177769e-38
0.33516866 -0.46613693 1.7360909 1.8993013e-38
0.34399721 -0.46447563 1.7334615 1.9177044e-38
0.3537921 -0.46159998 1.7309999 1.8901176e-38
0.3355965 -0.45915699 1.739 1.9361081e-38
0.3455705 -0.45540208 1.7390002 1.9268882e-38
0.35598791 -0.45404372 1.7358001 1.92696e-38
0.36541492 -0.45327997 1.7324544 1.8992651e-38
0.37201315 -0.4524895 1.7309999 1.8992296e-38
0.3481051 -0.44451278 1.739 1.9729858e-38
0.35542718 -0.44390261 1.7390001 1.9268882e-38
0.36510307 -0.4446356 1.7375454 1.9084849e-38
0.37277257 -0.44344136 1.7345555 1.9177404e-38
0.38112369 -0.4418605 1.7309999 1.8994455e-38
0.34932542 -0.43627542 1.739 1.8716779e-38
0.35580856 -0.43513134 1.7390001 1.8992654e-38
0.36457983 -0.43474996 1.7390001 1.9361437e-38
0.37532035 -0.43518808 1.7372859 1.9361438e-38
0.38436607 -0.4352254 1.7331818 1.9362157e-38
0.3902342 -0.43274999 1.7309999 1.9454357e-38
0.35725769 -0.42620754 1.739 1.9453272e-38
0.3645798 -0.42559737 1.7390001 1.9453632e-38
0.37460414 -0.42734072 1.7390001 1.9453995e-38
0.38606209 -0.42600888 1.7382002 1.9454353e-38
0.39546844 -0.42589208 1.7339997 1.9454711e-38
0.4054184 -0.42212102 1.7309999 1.9454353e-38
0.41484591 -0.42244503 1.7323333 1.9362519e-38
0.42212105 -0.42060262 1.7309999 1.936288e-38
0.35847807 -0.41949561 1.739 1.9545471e-38
0.36519 -0.41827527 1.739 1.9546547e-38
0.37068155 -0.41797018 1.739 1.973094e-38
0.38724348 -0.41644472 1.7390001 1.9362154e-38
0.39527512 -0.41497442 1.7377694 1.9454714e-38
0.40426269 -0.41338938 1.7340769 1.9638388e-38
0.41557306 -0.41491932 1.7390002 1.9454353e-38
0.42502996 -0.41437531 1.7356666 1.8347995e-38
0.38898683 -0.4072921 1.739 1.9823137e-38
0.39508858 -0.4072921 1.739 1.973094e-38
0.4042412 -0.4042412 1.7390001 1.9638024e-38
0.41522437 -0.40454632 1.7390001 1.8623502e-38
0.42663014 -0.40483707 1.7365386 1.0423109e-38
0.43376228 -0.40339383 1.7309999 1.8255092e-38
0.41797018 -0.39508858 1.739 9.6837571e-39
0.42600894 -0.39551419 1.7381999 1.7609365e-38
0.43483788 -0.39481074 1.7346922 1.9822056e-38
0.44470119 -0.39241698 1.7326 1.9454357e-38
0.45301667 -0.391563 1.7341999 1.9178129e-38
0.29654825 -0.3847523 1.7336665 7.4638341e-39
0.41873288 -0.38669866 1.739 1.7976714e-38
0.42559734 -0.38593593 1.7390001 1.9914255e-38
0.43512443 -0.3855651 1.7360911 1.9546192e-38
0.44419083 -0.38499084 1.7367144 1.9454357e-38
0.45405379 -0.38548973 1.7370001 1.9177769e-38
0.46336436 -0.38304299 1.7341999 1.871679e-38
0.30508769 -0.37830877 1.739 7.0064587e-39
0.41949561 -0.3798342 1.739 2.0098645e-38
0.42661428 -0.37780032 1.739 1.982206e-38
0.43533197 -0.3754451 1.7378571 1.9545834e-38
0.44369316 -0.37395158 1.7358 1.9454716e-38
0.45458072 -0.37525791 1.7390002 1.93618e-38
0.46570697 -0.37592018 1.735 1.8993376e-38
0.47222894 -0.37201315 1.7309999 1.9084849e-38
0.43474999 -0.36457983 1.7390001 1.9730224e-38
0.44390264 -0.3645798 1.7390001 1.9638026e-38
0.45458075 -0.3645798 1.7390002 1.9268882e-38
0.46520814 -0.36581221 1.7355715 1.917669e-38
0.47303823 -0.36429086 1.7355715 1.9454358e-38
0.43703815 -0.35618991 1.739 1.9729861e-38
0.44390261 -0.35542718 1.7390001 1.9453274e-38
0.45458069 -0.35542724 1.7390002 1.9545831e-38
0.46525875 -0.35542721 1.7390001 1.963911e-38
0.4754273 -0.35559312 1.7355716 1.9453998e-38
0.48376894 -0.35196999 1.7309999 1.9270329e-38
0.45610613 -0.34627458 1.7390001 1.97313e-38
0.46464857 -0.34566441 1.739 1.9453998e-38
0.47468874 -0.34516513 1.7390002 1.9822418e-38
0.48466972 -0.34444779 1.7375002 1.9730225e-38
0.49523577 -0.34367317 1.7382002 1.936216e-38
0.50356966 -0.34282893 1.7369999 1.9269243e-38
0.5117079 -0.34164473 1.7309999 1.9177047e-38
-0.25264037 -0.3332991 1.7349999 9.1295632e-39
-0.24687164 -0.33507106 1.7336665 9.1277569e-39
0.48550549 -0.33434841 1.7390002 1.9637669e-38
0.49576753 -0.33407104 1.7390001 1.9453637e-38
0.50560206 -0.33461988 1.7375457 1.9176687e-38
0.51198536 -0.33405641 1.7336665 1.8992291e-38
-0.26512074 -0.32391724 1.7336665 1.1434453e-38
-0.25813156 -0.32949737 1.7309999 1.0513208e-38
0.48966581 -0.32644385 1.739 1.9268528e-38
0.49576753 -0.32491842 1.7390001 1.917669e-38
0.50492018 -0.32491839 1.7390001 1.908449e-38
0.51474661 -0.32546917 1.7361429 1.9177046e-38
0.52467841 -0.32493389 1.7346364 1.8993736e-38
0.53637773 -0.32158652 1.7341999 1.890154e-38
-0.27179736 -0.31127632 1.7309999 1.1711386e-38
-0.2687605 -0.31735 1.7309999 1.2172755e-38
0.49881843 -0.31576577 1.739 1.9176691e-38
0.50453877 -0.3157658 1.7390001 1.9453635e-38
0.51491773 -0.3159638 1.738 1.9545474e-38
0.52562171 -0.31485957 1.7353076 1.917741e-38
0.53600264 -0.31431317 1.7309999 1.8901542e-38
0.54467934 -0.31344551 1.7309999 1.8991941e-38
0.55422372 -0.31127632 1.7309999 1.9084137e-38
0.56181574 -0.31127632 1.7309999 1.9085218e-38
-0.27568099 -0.30715525 1.7363333 1.1802885e-38
0.50644565 -0.30966401 1.739 1.9730582e-38
0.51437789 -0.30600294 1.7390001 1.9546194e-38
0.52531219 -0.30495659 1.7368947 1.9361082e-38
0.53585923 -0.30402979 1.7329999 1.9177048e-38
0.5449211 -0.30432624 1.7339089 1.9176331e-38
0.55499762 -0.30414507 1.7361429 1.917705e-38
0.56347585 -0.30413303 1.7345557 1.9269968e-38
-0.28438213 -0.29248974 1.7336665 1.0882735e-38
0.10628948 -0.29001841 1.7309999 5.8980148e-39
0.1126193 -0.29068857 1.7349999 5.9902174e-39
0.24750262 -0.29001841 1.7309999 7.6493632e-39
0.51712364 -0.29746053 1.739 1.9270329e-38
0.52516687 -0.294687 1.7390002 1.9269961e-38
0.53542894 -0.29440963 1.7390001 1.9360721e-38
0.54458159 -0.29746053 1.739 1.9545467e-38
0.55678511 -0.29440963 1.7390001 1.9178129e-38
0.56598103 -0.29488158 1.7382002 1.8901543e-38
0.57528418 -0.29220876 1.7350001 1.8993377e-38
0.58155525 -0.29001841 1.7309999 1.871571e-38
-0.30051142 -0.28220615 1.739 1.1525587e-38
-0.29305527 -0.28495702 1.7309999 1.1435192e-38
-0.28830788 -0.28830788 1.739 9.7763942e-39
0.057700001 -0.2809079 1.7309999 7.4664167e-39
0.06615977 -0.28351089 1.7309999 6.9132485e-39
0.07440263 -0.28394473 1.7309999 6.9136045e-39
0.085031569 -0.28394473 1.7309999 7.0965566e-39
0.095811002 -0.28437907 1.7336667 6.913603e-39
0.10415994 -0.28605291 1.7376666 6.450111e-39
0.11565964 -0.28764471 1.7349999 6.1724367e-39
0.12479474 -0.28460085 1.7349999 5.6221412e-39
0.13555115 -0.28177342 1.7363333 6.0795362e-39
0.14424999 -0.2809079 1.7309999 5.7114641e-39
0.15487894 -0.2809079 1.7309999 6.1728066e-39
0.16474868 -0.28166711 1.7309999 6.3586258e-39
0.17765525 -0.2809079 1.7309999 6.9117982e-39
0.18524736 -0.2809079 1.7309999 7.0036379e-39
0.19587632 -0.2809079 1.7309999 7.0961894e-39
0.20498683 -0.2809079 1.7309999 7.0965482e-39
0.21470472 -0.28212261 1.7309999 7.0969139e-39
0.2247263 -0.28192016 1.7309999 7.1891109e-39
0.23535526 -0.2824263 1.7309999 7.2813066e-39
0.24484539 -0.28356513 1.7309999 7.5575305e-39
0.25053945 -0.28394473 1.7309999 7.4642531e-39
0.52932715 -0.28525701 1.739 1.9362157e-38
0.53390354 -0.28525701 1.739 1.9453634e-38
0.55800545 -0.28647739 1.739 1.9268884e-38
0.56593776 -0.28525698 1.7390001 1.9085929e-38
0.57543314 -0.28542945 1.7381999 1.8808629e-38
0.5842182 -0.28402397 1.7331817 1.8901903e-38
0.59167808 -0.28192016 1.7309999 1.9363242e-38
-0.30715525 -0.2726348 1.7363333 9.0384466e-39
0.056181576 -0.27483422 1.7309999 8.0174367e-39
0.065292098 -0.27483425 1.7309999 7.8333999e-39
0.07440263 -0.27483422 1.7309999 7.8334042e-39
0.083835967 -0.27436489 1.7376667 7.8334056e-39
0.09274666 -0.27549422 1.7390001 7.9266774e-39
0.10220438 -0.27915525 1.739 7.3742211e-39
0.15559474 -0.27915525 1.739 6.0798949e-39
0.16474737 -0.27915525 1.739 5.9905706e-39
0.17502193 -0.2769877 1.735 6.5430213e-39
0.18567333 -0.27607387 1.7349999 6.819248e-39
0.19558759 -0.27368647 1.736143 6.9118024e-39
0.20569736 -0.27425787 1.737 7.0047113e-39
0.21445987 -0.27616468 1.737 7.2802234e-39
0.2238581 -0.27648577 1.7390001 7.464623e-39
0.23522262 -0.27488405 1.7390002 7.0032805e-39
0.24459288 -0.27497375 1.7318889 6.2631806e-39
0.25155175 -0.27685878 1.7309999 5.5295784e-39
0.52932715 -0.27915525 1.739 1.926996e-38
0.53390348 -0.27762982 1.739 1.9729858e-38
0.56746316 -0.27610439 1.739 1.8900106e-38
0.57610732 -0.27508745 1.7390001 1.9269966e-38
0.58499855 -0.27520382 1.7377692 1.9270327e-38
0.59172434 -0.27400765 1.733 1.9270686e-38
-0.32186756 -0.26085001 1.739 1.0787274e-38
-0.31465814 -0.26405129 1.735 9.7742053e-39
0.047071051 -0.26268682 1.7309999 8.294032e-39
0.054663152 -0.26572365 1.7309999 8.2025454e-39
0.065690525 -0.26548052 1.7334 8.2000273e-39
0.074660525 -0.26511577 1.7370001 8.1096309e-39
0.083463274 -0.26477256 1.7390001 8.1089176e-39
0.091526315 -0.26542628 1.739 8.5706161e-39
0.58467877 -0.2647725 1.7390001 1.9177771e-38
0.59334773 -0.26455429 1.7340769 1.9085216e-38
-0.33102018 -0.25169736 1.739 1.1156785e-38
-0.32569295 -0.25415877 1.7349999 1.05107e-38
0.036442105 -0.25053945 1.7309999 8.6627949e-39
0.04479342 -0.25357628 1.7309999 8.5698888e-39
0.054793857 -0.25567985 1.7349999 8.2943781e-39
0.064924732 -0.25603366 1.7374001 8.7521206e-39
0.075127847 -0.25512961 1.7390001 8.2936564e-39
0.080848247 -0.25779912 1.739 8.8464869e-39
0.58729386 -0.25627369 1.739 1.9085216e-38
0.5958963 -0.25628299 1.736143 1.8992301e-38
0.60577726 -0.25499275 1.7332858 1.890118e-38
0.61452669 -0.25270861 1.7309999 1.8900464e-38
-0.3355965 -0.2455956 1.739 1.1341181e-38
0.035303287 -0.24408618 1.7309999 8.4780519e-39
0.044106726 -0.2448424 1.7336667 8.9383112e-39
0.05491579 -0.24559562 1.7390002 8.5702461e-39
0.064068422 -0.24559562 1.739 8.6620914e-39
0.59797192 -0.24864648 1.739 1.8993373e-38
0.60694045 -0.24673972 1.7378572 1.8808986e-38
0.6143679 -0.24439387 1.7324547 1.8808986e-38
0.62255263 -0.24750262 1.7309999 1.8625315e-38
-0.34168041 -0.23506345 1.7363333 1.1433741e-38
-0.33712193 -0.23949386 1.739 1.1248978e-38
0.019739473 -0.23231842 1.7309999 8.5695399e-39
0.026246993 -0.23448758 1.7309999 8.293662e-39
0.035262454 -0.23496123 1.7326 8.5709692e-39
0.044189181 -0.23464327 1.7370001 8.6620858e-39
0.053945053 -0.23644298 1.7390002 8.5706035e-39
0.062542982 -0.23796842 1.739 8.6624432e-39
0.60864997 -0.23796842 1.739 1.8624947e-38
0.61526018 -0.23518084 1.7361429 1.8808627e-38
0.62221277 -0.2331377 1.7326 1.8623873e-38
-0.34622481 -0.22405553 1.7336665 1.1433741e-38
0.018437969 -0.22407556 1.7309999 9.123057e-39
0.02581316 -0.22472632 1.7309999 8.9390258e-39
0.034724802 -0.22477983 1.7346363 8.846833e-39
0.044237718 -0.22423948 1.7390001 8.4787736e-39
0.050339472 -0.2257649 1.739 8.4787666e-39
0.62427461 -0.22686788 1.7358001 1.8716432e-38
0.63389808 -0.22278903 1.7336665 1.8716792e-38
0.64381051 -0.22017106 1.7309999 1.8717153e-38
-0.35536051 -0.21364973 1.7344286 1.1619222e-38
