# .PCD v0.7 - Point Cloud Data file format
VERSION 0.7
FIELDS x y z rgb
SIZE 4 4 4 4
TYPE F F F F
COUNT 1 1 1 1
WIDTH 1060
HEIGHT 1
VIEWPOINT 0 0 0 1 0 0 0
POINTS 1060
DATA ascii
-0.20877895 -0.54934031 1.688 1.9087758e-38
0.64528978 -0.54756343 1.688 1.927248e-38
0.65494913 -0.54640752 1.6873332 1.9364681e-38
0.66436529 -0.54519832 1.6832942 1.9180285e-38
0.67347378 -0.54526311 1.6800002 1.9179929e-38
-0.22186266 -0.53428769 1.6845713 1.9179956e-38
-0.21745403 -0.53579789 1.6864001 1.9179599e-38
0.65891224 -0.53749472 1.688 1.9272482e-38
0.66472983 -0.53474033 1.684 1.9087732e-38
0.67454553 -0.53467947 1.6800002 1.9088807e-38
0.68467367 -0.53317899 1.6799999 1.9088806e-38
0.69115788 -0.53200001 1.6799999 1.8997335e-38
-0.23136842 -0.52315789 1.6799999 1.8904088e-38
-0.22445965 -0.5250631 1.6853333 1.9271792e-38
-0.21766314 -0.52712983 1.688 1.9363983e-38
0.64706665 -0.52712983 1.688 1.9364681e-38
0.65447015 -0.52564907 1.6879998 1.9180648e-38
0.66520917 -0.52582353 1.6849231 1.9272841e-38
0.67564493 -0.52524751 1.6828237 1.9180284e-38
0.68526316 -0.52463156 1.6800002 1.9181366e-38
0.69345021 -0.52348536 1.6800001 1.9273923e-38
-0.23235089 -0.51235086 1.6799999 1.9180318e-38
-0.22554585 -0.51535636 1.686857 1.9363628e-38
0.66542733 -0.51469195 1.688 1.9364679e-38
0.67520905 -0.51534939 1.685647 1.9180648e-38
0.68526316 -0.51431572 1.6800001 1.954979e-38
0.69410521 -0.51431578 1.6800001 1.9273564e-38
0.70117897 -0.51372623 1.6799999 1.9088454e-38
-0.24021052 -0.50399995 1.6799999 1.9548381e-38
-0.23487134 -0.50519413 1.684 1.9179957e-38
-0.22728771 -0.50714034 1.688 1.9455821e-38
0.66483516 -0.50491929 1.6879998 1.9272481e-38
0.67590594 -0.50542909 1.685647 1.9457592e-38
0.6852631 -0.50547367 1.6800001 1.9364679e-38
0.69447088 -0.50573951 1.6808889 1.9365758e-38
0.7025789 -0.5051052 1.6800001 1.9272484e-38
-0.24443333 -0.49459386 1.6849999 1.9455825e-38
-0.23627768 -0.49645811 1.6879998 1.9363987e-38
0.66568124 -0.49645811 1.6879998 1.9549068e-38
0.67605197 -0.49591619 1.6869333 1.9549071e-38
0.68544412 -0.49508631 1.6847999 1.936504e-38
0.69424522 -0.49447224 1.6832942 1.9365038e-38
0.70410091 -0.49471408 1.6810001 1.9179928e-38
0.71473688 -0.49073681 1.6799999 1.9087735e-38
-0.26084208 -0.48189473 1.6799999 1.9456184e-38
-0.2536813 -0.48396787 1.6846665 1.936399e-38
-0.24816491 -0.48747015 1.684 1.9363631e-38
0.67964208 -0.48715085 1.688 1.9733102e-38
0.68593502 -0.48455966 1.6879998 1.9641268e-38
0.69444913 -0.48418945 1.6879998 1.9364682e-38
0.70436776 -0.48466751 1.6842353 1.8995538e-38
0.71463627 -0.48437658 1.6826667 1.8903701e-38
0.72468418 -0.48373681 1.6800001 1.8904422e-38
-0.26084208 -0.47452629 1.6799999 1.9640214e-38
-0.25464457 -0.47506559 1.6855384 1.9456184e-38
0.67865497 -0.47333097 1.6880001 2.0010049e-38
0.68593502 -0.47493511 1.6879998 1.9733822e-38
0.69470942 -0.47478527 1.6872 1.9456876e-38
0.70430493 -0.47496396 1.6858181 1.9088095e-38
0.71546119 -0.47557136 1.6849231 1.8995538e-38
0.72522479 -0.47466126 1.6814119 1.9365041e-38
0.73536831 -0.47452629 1.6800002 1.908845e-38
-0.26281503 -0.46462756 1.6845714 1.9640213e-38
-0.25764212 -0.46642104 1.6879998 1.9456543e-38
0.67668074 -0.4679018 1.6879998 1.9825659e-38
0.68556494 -0.4679018 1.6879998 1.9457234e-38
0.69491285 -0.46549538 1.6873332 1.9456875e-38
0.70444071 -0.46419927 1.6863998 1.9272485e-38
0.71448314 -0.46477622 1.6836923 1.9272126e-38
0.7250526 -0.46421051 1.6800002 1.9548711e-38
0.73452628 -0.46463156 1.6800001 1.9179929e-38
-0.26589122 -0.4549737 1.6839999 1.9456542e-38
0.69592977 -0.45753682 1.688 1.9641262e-38
0.70481396 -0.45457539 1.6879998 1.9364325e-38
0.71544206 -0.45527968 1.6851428 1.9549073e-38
0.7250526 -0.45536849 1.6800002 1.9457234e-38
0.73242104 -0.45831579 1.6799999 1.9179928e-38
-0.27223277 -0.44533682 1.6866665 1.9456186e-38
-0.26884562 -0.44906312 1.684 1.9456187e-38
0.7074793 -0.44687575 1.688 1.9456875e-38
0.71563441 -0.44611102 1.6865453 1.9825658e-38
0.7253778 -0.44542688 1.6826668 1.9364681e-38
0.73340344 -0.44407013 1.6799999 1.9087734e-38
-0.28147367 -0.43178949 1.6799999 1.9547664e-38
-0.27714464 -0.43466818 1.6835555 1.9639858e-38
0.70925611 -0.43828773 1.688 1.9548711e-38
0.71602505 -0.43680695 1.6879998 1.9734185e-38
0.72527921 -0.43538117 1.6851764 1.9180651e-38
0.73536837 -0.43473682 1.6800001 1.9457235e-38
0.74421048 -0.43473682 1.6800001 1.9642347e-38
-0.28292832 -0.42533833 1.6811429 1.9548022e-38
-0.27866808 -0.42555365 1.688 1.9639858e-38
0.7181403 -0.42792282 1.688 1.9456875e-38
0.72584915 -0.4252421 1.684 1.9364681e-38
0.73536831 -0.42589471 1.6800001 1.9641626e-38
0.74421048 -0.42589474 1.6800001 1.9365761e-38
0.75128424 -0.42530528 1.6799999 1.9272488e-38
-0.29031578 -0.41263157 1.6799999 1.9732049e-38
-0.28582174 -0.4155817 1.6847999 1.9456546e-38
-0.27985263 -0.41903859 1.688 1.8903732e-38
0.725775 -0.41491434 1.6875292 1.9549431e-38
0.73483044 -0.41502869 1.682353 1.9733821e-38
0.74421048 -0.41557896 1.6800002 1.9181011e-38
0.75246322 -0.41557893 1.6800001 1.9180651e-38
-0.29389665 -0.40398657 1.6836364 1.9455471e-38
-0.28873685 -0.40719298 1.688 1.9363273e-38
0.72669548 -0.40488967 1.6879998 2.001005e-38
0.73597306 -0.40481988 1.6853333 1.9733822e-38
0.74415666 -0.40467134 1.6826668 1.9364682e-38
0.75157899 -0.40526316 1.6799999 1.9273204e-38
-0.30355918 -0.39432403 1.6836364 1.9547662e-38
-0.2971462 -0.39866197 1.6853333 1.954802e-38
0.72899884 -0.39732161 1.6880001 2.0286636e-38
0.73633182 -0.39619347 1.6879998 1.9641268e-38
0.74492079 -0.39525265 1.684 1.9272485e-38
0.75246322 -0.39435786 1.6800001 1.9272843e-38
0.77073681 -0.39199999 1.6799999 1.8904063e-38
-0.31217659 -0.3834585 1.6813334 1.9363991e-38
-0.30716801 -0.38506591 1.6862222 1.9455827e-38
0.73887014 -0.38054034 1.688 1.9549071e-38
0.74470228 -0.38504022 1.686769 1.9272128e-38
0.75376415 -0.38440564 1.6816002 1.9087737e-38
0.76484203 -0.3846316 1.6800001 1.9088093e-38
0.77250528 -0.38345259 1.6799999 1.8718951e-38
-0.3143883 -0.37539878 1.6826668 1.9455467e-38
-0.30946666 -0.37461755 1.6880001 1.9363271e-38
0.73887014 -0.37757894 1.688 1.9456875e-38
0.74479294 -0.37461755 1.6879998 1.9364322e-38
0.75375879 -0.37531137 1.6820002 1.9271766e-38
0.76484203 -0.37578946 1.6800001 1.8902984e-38
0.77427363 -0.37549469 1.6800001 1.8810787e-38
0.78399998 -0.37284207 1.6799999 1.8995898e-38
-0.31511128 -0.36617354 1.6850909 1.9271436e-38
-0.30946666 -0.36869472 1.688 1.9455821e-38
0.74479294 -0.36721405 1.6879998 1.9364321e-38
0.75565565 -0.36683661 1.6862856 1.9364321e-38
0.76486975 -0.36575577 1.6826667 1.8811147e-38
0.77515781 -0.36547363 1.6800002 1.8811507e-38
0.78547364 -0.36547366 1.6800002 1.8995901e-38
0.79431581 -0.36547366 1.6800002 1.8718218e-38
0.8050335 -0.36400002 1.6800002 1.438792e-38
-0.33157894 -0.35221049 1.6799999 1.9824246e-38
-0.32390094 -0.35473761 1.6826667 1.9179241e-38
-0.31835085 -0.3598105 1.688 1.9086325e-38
0.75663859 -0.3598105 1.6880001 1.9456876e-38
0.76597613 -0.35532632 1.6863998 1.8811869e-38
0.77500767 -0.35431156 1.6816002 1.9272843e-38
0.7854737 -0.35515785 1.6800001 1.9271764e-38
0.79431581 -0.35515785 1.6800001 1.430001e-38
0.80399996 -0.35642102 1.6800001 1.3470633e-38
-0.34042105 -0.34189475 1.6799999 1.9639502e-38
-0.33322877 -0.34356135 1.6824001 1.9455471e-38
-0.3265664 -0.34725413 1.6845714 1.9178884e-38
0.75811929 -0.34204209 1.688 1.8903705e-38
0.76700354 -0.34500349 1.6879998 1.9272482e-38
0.77554488 -0.34586075 1.6855384 1.9179931e-38
0.78455788 -0.34451231 1.6820002 1.8257606e-38
0.79431576 -0.34484211 1.6800002 1.1812917e-38
0.80021054 -0.34484211 1.6799999 1.7523303e-38
-0.34214735 -0.33413333 1.6822857 1.9639861e-38
-0.33553746 -0.33499905 1.6850909 1.9731695e-38
0.75811929 -0.33908069 1.688 1.8995545e-38
0.76749706 -0.33809355 1.6880001 1.9180287e-38
0.77499932 -0.33523083 1.688 1.9178852e-38
0.78416902 -0.33411783 1.6842105 1.4297513e-38
0.79488224 -0.33403122 1.682909 1.770733e-38
0.80242103 -0.33378947 1.6799999 1.9365398e-38
0.81199998 -0.33157894 1.6799999 1.8996619e-38
-0.35221049 -0.32273683 1.6799999 1.9455834e-38
-0.3451649 -0.32497889 1.684 1.9455831e-38
-0.33908069 -0.32427368 1.6880001 1.9271085e-38
0.78625262 -0.32353333 1.6879998 1.2547631e-38
0.79503798 -0.32510814 1.6846666 1.8904424e-38
0.80463153 -0.32494736 1.6800001 1.9273203e-38
0.81328654 -0.32373568 1.6826667 1.8996977e-38
-0.36105263 -0.31094736 1.6799999 1.9547664e-38
-0.35408366 -0.314807 1.6824616 1.9363993e-38
-0.34628072 -0.31669629 1.6862222 1.9363638e-38
0.78566033 -0.31568557 1.688 1.6783563e-38
0.7943368 -0.3151629 1.6822857 1.8995538e-38
0.80315799 -0.31536841 1.6800002 1.8996613e-38
0.81596541 -0.31526691 1.6849231 1.8812223e-38
0.82378942 -0.31242105 1.6799999 1.8719667e-38
-0.36301753 -0.30407014 1.6799999 1.9547308e-38
-0.35543811 -0.30512515 1.6869333 1.9363275e-38
-0.3469778 -0.30847952 1.6880001 1.9547667e-38
0.78625268 -0.30798593 1.6879998 1.9363958e-38
0.79505771 -0.30483553 1.6853331 1.8903343e-38
0.80397606 -0.30444208 1.6847999 1.8995897e-38
0.81645888 -0.30828208 1.688 1.8903698e-38
0.82528794 -0.30594224 1.6849231 1.8719307e-38
0.8342182 -0.30222383 1.6855999 1.8811145e-38
0.84442109 -0.30210525 1.6799999 1.8626397e-38
-0.36590436 -0.2950851 1.6820002 1.9363635e-38
-0.35783625 -0.29564676 1.6879998 1.9270718e-38
0.79513675 -0.29762104 1.6880001 1.9088088e-38
0.80402106 -0.29465964 1.6879998 1.8995537e-38
0.82652777 -0.29525191 1.688 1.8810787e-38
0.83596832 -0.29467899 1.6859999 1.8626758e-38
0.84442109 -0.29473683 1.6800002 1.8626394e-38
0.85031575 -0.29326317 1.6799999 1.8627114e-38
-0.37342921 -0.28192046 1.6826667 1.9547309e-38
-0.3676658 -0.28563422 1.6850001 1.9455831e-38
0.80550176 -0.28725612 1.688 1.8627474e-38
0.82771224 -0.28725612 1.688 1.8626756e-38
0.83537805 -0.28589794 1.6873844 1.853492e-38
0.84454882 -0.2849586 1.6831999 1.8718948e-38
0.85193264 -0.28377825 1.6831999 1.8442362e-38
-0.38111228 -0.27180001 1.684 1.945547e-38
-0.3750672 -0.27524644 1.6849232 1.9547308e-38
-0.36869469 -0.27689123 1.6880001 1.9455472e-38
0.82771224 -0.27837193 1.688 1.8626756e-38
0.83511579 -0.27541053 1.6879998 1.8442725e-38
0.84548074 -0.27541053 1.6879998 1.8533841e-38
0.85392135 -0.27518177 1.6847999 1.8349811e-38
-0.38347897 -0.26525789 1.6846666 1.9178887e-38
-0.37757894 -0.26504561 1.6880001 1.9639859e-38
0.83955789 -0.26800701 1.688 1.8533845e-38
0.84585083 -0.26541579 1.6879998 1.8442008e-38
0.85538614 -0.26601943 1.6855384 1.853528e-38
0.86296314 -0.26472631 1.686 1.8534917e-38
-0.39052632 -0.252 1.6799999 1.9271443e-38
-0.38639018 -0.2553249 1.6863998 1.9271443e-38
-0.37757894 -0.25912279 1.688 1.9548029e-38
0.84725749 -0.25675368 1.688 1.8350527e-38
0.85436487 -0.25468072 1.6879998 1.8535276e-38
0.86324906 -0.25468072 1.6879998 1.8350526e-38
-0.39422032 -0.24361822 1.6831999 1.9547668e-38
-0.38942456 -0.24727719 1.688 1.97317e-38
0.85584563 -0.24431579 1.6879998 1.8166138e-38
0.86324906 -0.24431576 1.6879998 1.7889541e-38
-0.4019672 -0.23271815 1.6826667 1.9731698e-38
-0.39685699 -0.23612018 1.6849999 1.9455471e-38
0.85584563 -0.23543157 1.6879998 1.8166855e-38
0.86324906 -0.23543157 1.6879998 1.8166136e-38
-0.40387583 -0.22483023 1.6836923 1.9455834e-38
-0.39830875 -0.22950877 1.688 1.9363273e-38
0.85732633 -0.22654736 1.6880001 1.7798071e-38
0.86324906 -0.22506668 1.6879998 1.8073939e-38
-0.41372415 -0.21383968 1.6812308 1.9455475e-38
-0.40588847 -0.21665809 1.6853334 1.9271803e-38
-0.42381579 -0.2047158 1.682 1.9455114e-38
-0.41748366 -0.20694537 1.686857 1.9547312e-38
-0.43278736 -0.19146526 1.6816 1.9271082e-38
-0.42615652 -0.19596164 1.6855384 1.9270725e-38
-0.41903859 -0.19989474 1.688 1.9638427e-38
-0.43428886 -0.18464677 1.684 1.9087053e-38
-0.42718244 -0.18582807 1.688 1.9363277e-38
-0.44333836 -0.17265163 1.6822857 1.8902663e-38
-0.435803 -0.17539054 1.6867692 1.8994138e-38
-0.45242107 -0.16210526 1.6799999 1.8626076e-38
-0.44637594 -0.16475487 1.6834286 1.8718273e-38
-0.4531579 -0.15399998 1.6799999 1.862572e-38
-0.44793919 -0.15522806 1.6853333 1.8718629e-38
-0.46126315 -0.14294736 1.6799999 1.8165098e-38
-0.45445892 -0.14498806 1.6832 1.8717191e-38
-0.44865263 -0.14807017 1.688 1.8994493e-38
-0.47010523 -0.13263157 1.6799999 1.8442048e-38
-0.46358162 -0.13493061 1.6818461 1.8349491e-38
-0.45680937 -0.13699181 1.6853333 1.8625716e-38
-0.47195199 -0.12536024 1.6813334 1.8165102e-38
-0.46679127 -0.12622981 1.6879998 1.8441682e-38
-0.47453433 -0.11468271 1.6822857 1.8348769e-38
-0.46864212 -0.11771578 1.688 1.8349486e-38
-0.4834837 -0.1034376 1.6811428 1.7796311e-38
-0.477043 -0.10530965 1.6849999 1.8071825e-38
-0.49058068 -0.094422802 1.6819999 1.7704484e-38
-0.48489287 -0.095613487 1.6849231 1.7612646e-38
-0.47826666 -0.099207014 1.688 1.7889234e-38
-0.49385923 -0.084676757 1.6825001 1.7703762e-38
-0.48715085 -0.085880697 1.688 1.7704834e-38
-0.50488412 -0.073389471 1.6799999 1.7703755e-38
-0.4970558 -0.07565359 1.6850909 1.7795595e-38
-0.51294732 -0.063400388 1.6808889 1.7519368e-38
-0.50536633 -0.065648116 1.6845714 1.742789e-38
-0.49899647 -0.066631578 1.6880001 1.7427892e-38
-0.52138942 -0.053936839 1.6799999 1.7242783e-38
-0.51487368 -0.05474152 1.6866666 1.7426815e-38
-0.50788069 -0.057747364 1.688 1.7151669e-38
-0.52168417 -0.045684207 1.6799999 1.7334976e-38
-0.51713502 -0.046271928 1.6879998 1.7243142e-38
-0.53200001 -0.030947367 1.6799999 1.6966555e-38
-0.52475685 -0.035103913 1.6836923 1.6966913e-38
-0.51972628 -0.038498245 1.688 1.724314e-38
-0.54084206 -0.022105264 1.6799999 1.6599567e-38
-0.53423083 -0.024496138 1.6824 1.6691045e-38
-0.52769703 -0.026136843 1.6866665 1.6691045e-38
-0.54256672 -0.013957894 1.6818464 1.6598131e-38
-0.53537732 -0.015740989 1.6872727 1.6690325e-38
-0.54341751 -0.0046947366 1.6821818 1.6413381e-38
-0.54522491 0.0044358675 1.6844443 1.622899e-38
-0.55254912 0.016970176 1.6819999 1.5861645e-38
-0.54711521 0.01445452 1.6867692 1.5953124e-38
-0.56147367 0.025052631 1.6799999 1.5952041e-38
-0.5551579 0.025894733 1.6800001 1.60446e-38
-0.54968423 0.023578946 1.6799999 1.5768732e-38
-0.56309825 0.036164913 1.6826668 1.5676532e-38
-0.55694187 0.035026897 1.687111 1.5768369e-38
-0.5722807 0.046666663 1.6799999 1.5492145e-38
-0.56561095 0.045782458 1.6835556 1.5308831e-38
-0.57465315 0.054409523 1.6828573 1.5492143e-38
-0.56710875 0.053305261 1.688 1.5308112e-38
-0.58439004 0.066739641 1.6831999 1.5307392e-38
-0.57777447 0.062698744 1.6845714 1.5399945e-38
-0.59168422 0.075157896 1.6799999 1.5122643e-38
-0.58426839 0.07524737 1.682 1.5123004e-38
-0.59188539 0.084138006 1.6826667 1.493897e-38
-0.5853973 0.083311401 1.681 1.493897e-38
-0.60273683 0.09578947 1.6799999 1.4663462e-38
-0.59724265 0.09489765 1.6859999 1.475458e-38
-0.60401642 0.10512514 1.6826667 1.4662742e-38
-0.59894383 0.10438947 1.688 1.4570546e-38
-0.6121586 0.11771369 1.6816 1.4569108e-38
-0.60712165 0.11325029 1.6839999 1.4477994e-38
-0.6148091 0.12514737 1.6824001 1.4385433e-38
-0.63368422 0.13705263 1.6799999 1.3925891e-38
-0.62459815 0.13475965 1.6820002 1.4293235e-38
-0.61746311 0.13294737 1.684 1.4201043e-38
-0.21385564 0.13432081 1.6879998 6.3568055e-39
-0.20680468 0.135731 1.6879998 1.2434489e-38
-0.19545263 0.13770527 1.688 1.7410493e-38
-0.6410526 0.1488421 1.6799999 1.374078e-38
-0.63467079 0.14521696 1.6806668 1.37415e-38
-0.62632382 0.14331391 1.6843077 1.3833694e-38
-0.21322106 0.14066666 1.688 6.6323288e-39
-0.20483042 0.1446152 1.6879998 1.3172044e-38
-0.19493464 0.14471622 1.6835001 1.7594171e-38
-0.18538384 0.1459972 1.688 1.7501245e-38
-0.17561123 0.14895859 1.688 1.7593444e-38
-0.16435789 0.14955087 1.6880001 1.7223574e-38
-0.15843509 0.14955087 1.688 1.7408681e-38
-0.6415742 0.15596725 1.6826667 1.3648584e-38
-0.63563305 0.15367818 1.686857 1.3832618e-38
-0.62929827 0.15251227 1.688 1.3832977e-38
-0.20417662 0.15534854 1.6866666 9.2083876e-39
-0.19550878 0.15277192 1.6799999 1.731831e-38
-0.18396913 0.15325752 1.6831999 1.7685281e-38
-0.17447229 0.15465754 1.6855999 1.7593808e-38
-0.16463579 0.15546946 1.6847999 1.73165e-38
-0.15650806 0.15532351 1.6863998 1.7225017e-38
-0.6528421 0.168 1.6799999 1.3464193e-38
-0.64674598 0.16421214 1.6818461 1.3648584e-38
-0.20521142 0.16460788 1.683 6.9056689e-39
-0.1734035 0.16161405 1.6799999 1.81459e-38
-0.168 0.16063158 1.6799999 1.7592366e-38
-0.65376627 0.17620841 1.6824001 1.3095772e-38
-0.64918768 0.17409649 1.6819999 1.3279804e-38
-0.20681052 0.17529239 1.684 6.8152908e-39
-0.66242105 0.18494736 1.6799999 1.2912094e-38
-0.65641207 0.18442105 1.6843636 1.2819902e-38
-0.21174036 0.18804912 1.688 1.2899437e-38
-0.20424843 0.18532631 1.6847999 6.2642764e-39
-0.66389912 0.19526762 1.6829091 1.2727702e-38
-0.65885377 0.19169591 1.6853333 1.3003217e-38
-0.20581754 0.19101053 1.688 8.8471847e-39
-0.67116207 0.20621893 1.6816 1.263551e-38
-0.66768771 0.20385262 1.6839999 1.2727345e-38
-0.68231577 0.21810526 1.6799999 1.2358564e-38
-0.6764906 0.21369377 1.682182 1.2542595e-38
-0.68339413 0.22878362 1.6826667 1.217418e-38
-0.67953265 0.22375157 1.6847999 1.2358563e-38
-0.69115788 0.23578948 1.6799999 1.2081258e-38
-0.68564701 0.23435578 1.6824001 1.2081976e-38
-0.69386727 0.24487208 1.6807274 1.1896866e-38
-0.68792742 0.24294502 1.6853334 1.2080895e-38
-0.1255614 0.24816491 1.684 1.8706296e-38
-0.70165968 0.25703156 1.6839999 1.1528442e-38
-0.69796664 0.25444561 1.684 1.171283e-38
-0.12313823 0.25365615 1.6832001 1.0776415e-38
-0.11875228 0.25675368 1.688 4.6011243e-39
-0.71326315 0.26821053 1.6799999 1.1619557e-38
-0.70574188 0.26369122 1.6835555 1.1620273e-38
-0.69741046 0.26208422 1.688 1.1804673e-38
-0.11474194 0.26397446 1.6829091 5.2497377e-39
-0.10481843 0.26573244 1.6830001 6.5408408e-39
-0.095071673 0.26836291 1.6822857 6.6334008e-39
-0.089894734 0.2696842 1.6799999 6.6334008e-39
-0.72210526 0.27852631 1.6799999 1.1436243e-38
-0.71365148 0.27576843 1.6826667 1.1527723e-38
-0.084829472 0.27222598 1.6847999 7.0925825e-39
-0.075336836 0.27672395 1.6839999 7.0018274e-39
-0.066521637 0.27941051 1.6853333 6.8177851e-39
-0.72063154 0.28442106 1.6799999 1.1252207e-38
-0.7158435 0.28480488 1.684 1.1436239e-38
-0.063464329 0.28192046 1.6826667 6.8185039e-39
-0.054581046 0.28468913 1.6816 7.4606349e-39
-0.045824558 0.28680232 1.6853333 7.1858529e-39
-0.035536841 0.28873685 1.688 7.0028994e-39
-0.73242104 0.29915789 1.6799999 1.1252205e-38
-0.72472 0.29490852 1.6826668 1.0883423e-38
-0.7181403 0.29169825 1.688 1.1434797e-38
-0.051578946 0.29031578 1.6799999 6.7266684e-39
-0.045752045 0.29077661 1.6826667 7.0028952e-39
-0.03545263 0.29248071 1.684 7.3698812e-39
-0.025112281 0.29346547 1.6839999 7.0021819e-39
-0.01477193 0.29617366 1.6839999 6.8181536e-39
-0.0014807017 0.29762104 1.688 7.0028952e-39
0.0014807017 0.29762104 1.688 7.0025449e-39
-0.73432887 0.30597278 1.6810001 1.0883426e-38
-0.72742444 0.30449632 1.6858182 1.0422443e-38
-0.0049228068 0.30183506 1.684 7.0961726e-39
0.0044233915 0.30159765 1.6826667 7.1883753e-39
0.015630877 0.30534035 1.6816 7.2802122e-39
0.024508068 0.30740207 1.6831999 7.6479157e-39
0.03536842 0.308 1.6799999 7.280208e-39
0.0458 0.30873334 1.684 7.2802108e-39
0.054785963 0.30946666 1.6880001 7.2802108e-39
0.060708772 0.30946666 1.688 7.2802108e-39
-0.74126309 0.31831577 1.6799999 1.0882708e-38
-0.73557293 0.31492418 1.683077 1.06072e-38
0.039789472 0.31094736 1.6799999 7.2802108e-39
0.045684207 0.31094736 1.6799999 7.3713274e-39
0.051578946 0.31094736 1.6799999 7.7375932e-39
0.066530995 0.3119345 1.6853333 7.096537e-39
0.075391807 0.31291696 1.6853333 7.0032581e-39
0.085676014 0.31365499 1.684 7.3720505e-39
0.095597655 0.3153801 1.6853333 7.3724036e-39
0.10453755 0.31716627 1.688 7.1880137e-39
0.11626947 0.31863856 1.6863998 7.5560788e-39
0.12231578 0.31978947 1.6799999 7.4642503e-39
-0.74354476 0.32661492 1.6810001 1.0699033e-38
-0.73779058 0.32352397 1.6866665 1.0698676e-38
0.12734035 0.32131228 1.688 7.2802108e-39
0.13532105 0.32166842 1.6859999 7.1876606e-39
0.14418244 0.32234588 1.6845714 7.3709715e-39
0.15528947 0.32536665 1.686 7.0036309e-39
0.1643579 0.32723507 1.6880001 7.4642447e-39
0.17444678 0.32770059 1.6853333 7.1883767e-39
0.18508773 0.32723507 1.6880001 7.3720491e-39
-0.75010526 0.33599997 1.6799999 1.0515006e-38
-0.74637192 0.3340725 1.6826667 1.0698673e-38
0.17916492 0.3301965 1.688 7.3713344e-39
0.18508773 0.3301965 1.6880001 7.2791388e-39
0.19510613 0.33182368 1.6849999 7.188741e-39
0.20538558 0.33540663 1.6844444 7.5571648e-39
0.21455966 0.33642626 1.6839999 7.6497177e-39
0.22570124 0.33738846 1.6879998 7.5578808e-39
0.23580174 0.3364895 1.6879998 7.9255872e-39
0.24404658 0.33504239 1.6879998 7.9255886e-39
0.2502386 0.33611929 1.6880001 7.3749315e-39
-0.75225616 0.34566319 1.6839999 1.042209e-38
0.21663156 0.34042105 1.6799999 7.7419148e-39
0.2343158 0.34042105 1.6799999 8.0174311e-39
0.24512278 0.34336838 1.6800001 7.741563e-39
0.2539565 0.34519857 1.6832001 7.3738553e-39
0.26356491 0.34796491 1.688 7.0983474e-39
-0.7618947 0.35663158 1.6799999 1.0054382e-38
-0.75618881 0.35448208 1.6824001 1.0605042e-38
0.25698242 0.35479695 1.6822857 7.0058001e-39
0.26445335 0.35477617 1.688 7.0976286e-39
0.27096844 0.35240701 1.688 7.7415518e-39
-0.76457405 0.3658756 1.6800002 1.0238053e-38
-0.75927365 0.36338949 1.684 1.0513923e-38
0.24757895 0.36989474 1.6799999 6.0827648e-39
0.25501436 0.3655445 1.6821818 6.5419479e-39
0.26326877 0.36514106 1.688 6.3597104e-39
-0.77663153 0.37873682 1.6799999 1.032917e-38
-0.76578146 0.37520298 1.6811428 1.0237333e-38
0.24757895 0.37431577 1.6799999 5.7139781e-39
0.25473243 0.37638152 1.6810001 5.4363108e-39
-0.78350878 0.38659647 1.6799999 9.7777927e-39
-0.77546376 0.38478541 1.6806668 9.5941217e-39
-0.76778942 0.38315791 1.6799999 9.5022848e-39
0.26474887 0.38288021 1.6834285 4.423591e-39
0.27392983 0.38646317 1.6879998 4.1477145e-39
-0.79284209 0.39789474 1.6799999 9.5012016e-39
-0.78483433 0.39529508 1.6835555 9.3175348e-39
-0.77653593 0.39270085 1.683 9.7767137e-39
-0.16063158 0.39936841 1.6799999 9.671493e-39
-0.1550612 0.39529195 1.6835556 9.4885282e-39
-0.14494425 0.3963345 1.6879998 9.304144e-39
-0.13770527 0.39830875 1.688 1.114518e-38
0.18715788 0.39642105 1.6799999 6.173845e-39
-0.79267544 0.4046351 1.6820002 9.7763535e-39
-0.78773332 0.40423155 1.6879998 9.5015645e-39
-0.18347368 0.40747368 1.6799999 9.5789246e-39
-0.17513059 0.40515009 1.680889 9.4870919e-39
-0.16486417 0.40467972 1.6845714 9.3959879e-39
-0.1551035 0.40460175 1.6879998 8.8435231e-39
-0.14658946 0.40275085 1.6879998 8.2885571e-39
-0.13770527 0.40127015 1.688 8.1963461e-39
-0.79250872 0.41435787 1.6839999 9.3164586e-39
-0.78921402 0.4175579 1.688 8.1186483e-39
-0.21493682 0.41730523 1.684 5.7164626e-39
-0.20484211 0.41557893 1.6799999 9.5814567e-39
-0.1944574 0.41509408 1.6829091 9.3030636e-39
-0.18489121 0.41564208 1.6862222 9.1190366e-39
-0.17429973 0.41523108 1.6879998 9.2108707e-39
-0.16472808 0.41274559 1.6879998 9.1201156e-39
-0.15621403 0.41089472 1.688 8.9353502e-39
-0.79435438 0.42616665 1.684 2.3146494e-39
-0.78921402 0.42199999 1.688 4.4344146e-39
-0.22062455 0.42792282 1.688 7.5578388e-39
-0.21420614 0.42471138 1.6869998 1.0410496e-38
-0.20527408 0.4238472 1.6835556 9.3956179e-39
-0.19660428 0.42430326 1.6879998 8.7516876e-39
-0.18804912 0.42199999 1.688 8.567302e-39
-0.801476 0.43837893 1.6826667 1.5706075e-39
-0.79577613 0.43470803 1.6855999 1.2958171e-39
-0.22062455 0.43236488 1.688 8.2911019e-39
-0.21420819 0.43285844 1.6879998 1.0318669e-38
-0.20624061 0.43299943 1.6879998 8.8428043e-39
-0.19989474 0.43236488 1.688 8.5672992e-39
-0.81199998 0.44799998 1.6799999 1.8461126e-39
-0.80595005 0.44581547 1.684 1.5713166e-39
-0.81478691 0.45598799 1.6822857 1.1110573e-39
-0.8089807 0.45255613 1.6859999 1.2958157e-39
-0.82205611 0.46605963 1.6839999 1.1121321e-39
-0.81535381 0.46460405 1.6855384 1.0195778e-39
-0.80698246 0.46938244 1.6880001 1.1121279e-39
-0.83067369 0.47530526 1.688 1.1121279e-39
-0.82446587 0.47513261 1.6831999 1.0199337e-39
-0.81586671 0.47530523 1.6879998 1.2028984e-39
-0.8073526 0.47530529 1.6879998 1.9404509e-39
-0.82327986 0.48443595 1.6850001 1.572383e-39
-0.81563681 0.48508945 1.6859999 2.2166748e-39
-0.80522943 0.48490945 1.6863998 2.4010759e-39
-0.79661751 0.48567015 1.688 2.67766e-39
-0.78181052 0.48715085 1.688 2.6773054e-39
-0.82084209 0.49221051 1.6799999 1.8489713e-39
-0.8156842 0.49147367 1.6799999 2.2156e-39
-0.80428535 0.49259767 1.6813334 2.1259309e-39
-0.7947312 0.49450201 1.6821334 2.4950778e-39
-0.78471148 0.4948526 1.684 2.3106851e-39
-0.77422976 0.49564269 1.6833334 2.5861846e-39
-0.76642942 0.49863997 1.6847999 2.2181251e-39
-0.75811929 0.49899647 1.688 2.5869035e-39
-0.79284203 0.50399995 1.6799999 2.9553399e-39
-0.78473884 0.50370824 1.6811428 2.5865531e-39
-0.77532792 0.50520319 1.6806155 2.2177608e-39
-0.76501226 0.50459468 1.6820002 1.9422543e-39
-0.75628722 0.50524956 1.6862856 2.9553315e-39
-0.74553329 0.50714034 1.688 3.4159411e-39
-0.73738945 0.50788069 1.688 3.1393752e-39
-0.77663159 0.51136839 1.6799999 2.4943561e-39
-0.76518244 0.51406312 1.684 1.9429606e-39
-0.75439298 0.51338327 1.6830001 2.8620526e-39
-0.74450177 0.51405609 1.684 3.0471712e-39
-0.73563862 0.51405615 1.684 2.8634946e-39
-0.72688609 0.51690203 1.6858181 3.2304806e-39
-0.7181403 0.51972628 1.688 2.6791061e-39
-0.75010526 0.5202105 1.6799999 2.2199034e-39
-0.74421048 0.52168417 1.6799999 3.3233951e-39
-0.73536843 0.52168417 1.6799999 3.3234021e-39
-0.72456139 0.52217537 1.6800001 2.9549699e-39
-0.71541339 0.52542275 1.6833334 2.67839e-39
-0.7088421 0.52905262 1.6799999 2.2184979e-39
-0.69148773 0.52861053 1.688 2.8634974e-39
-0.68704557 0.52861053 1.688 2.6783788e-39
-0.71252626 0.53421056 1.6799999 2.6791061e-39
-0.70569819 0.53555483 1.6845713 2.8631372e-39
-0.69495279 0.53537077 1.6844443 3.1390024e-39
-0.68512821 0.53413659 1.6824615 2.8631302e-39
-0.67690015 0.53541493 1.6865453 3.2311995e-39
-0.70442104 0.54084206 1.6799999 3.1397283e-39
-0.69520944 0.54295051 1.6807274 2.8631232e-39
-0.68526316 0.54231572 1.6799999 2.7713031e-39
-0.67544121 0.54150558 1.682909 3.4152306e-39
-0.66397828 0.54436892 1.6833334 3.2315498e-39
-0.65586919 0.54676741 1.684 3.2319099e-39
-0.64558595 0.54934031 1.688 2.9556734e-39
-0.66168422 0.55410528 1.6799999 3.2312023e-39
-0.65459585 0.55500638 1.6820002 3.0471585e-39
-0.64522099 0.55544978 1.6832001 2.7712863e-39
-0.6354416 0.55563802 1.6846666 3.0471557e-39
-0.62706226 0.55693591 1.683 2.7702115e-39
-0.66168422 0.56442106 1.6799999 3.2308253e-39
-0.65578943 0.56294733 1.6799999 2.8627659e-39
-0.64842105 0.56294739 1.6799999 2.3103082e-39
-0.62263238 0.5646202 1.6849999 3.1386437e-39
-0.621894 0.57314599 1.684 3.0475145e-39
-0.61472881 0.57423645 1.6855384 2.7712891e-39
-0.60533398 0.57635158 1.6855999 3.0471501e-39
-0.59554625 0.57641488 1.6851764 2.6798096e-39
-0.58568329 0.57792014 1.6850001 3.0475131e-39
-0.57905614 0.57905614 1.684 2.7712863e-39
-0.60371929 0.58308768 1.6799999 3.2315414e-39
-0.59536839 0.58210522 1.6799999 3.140429e-39
-0.58505255 0.58505261 1.6800001 2.9549615e-39
-0.57462335 0.58496255 1.6840001 2.4947064e-39
-0.56499034 0.58678859 1.6849998 2.8634777e-39
-0.55852628 0.588 1.6799999 2.8645539e-39
-0.58505261 0.59168422 1.6799999 2.6790949e-39
-0.57410526 0.59221047 1.6800001 2.9549671e-39
-0.56501055 0.59212631 1.6799999 3.0478788e-39
-0.5546003 0.59489763 1.6843636 2.6790865e-39
-0.54558188 0.59885311 1.686857 2.954237e-39
-0.5346536 0.59886819 1.6857141 3.4148621e-39
-0.52406311 0.59972632 1.6847999 3.3244573e-39
-0.51972628 0.59968418 1.688 2.6791061e-39
-0.55263156 0.6042105 1.6799999 2.0358639e-39
-0.54532719 0.60546827 1.6842353 2.8631246e-39
-0.53378862 0.60567284 1.681 3.2319099e-39
-0.52493769 0.60545051 1.6806155 2.8638449e-39
-0.51578712 0.60631347 1.6826667 3.2326274e-39
-0.54300612 0.6137833 1.6810001 3.2311841e-39
-0.5349474 0.61452627 1.6800001 3.13935e-39
-0.52463156 0.61305261 1.6800001 3.1400758e-39
-0.51396835 0.6142267 1.6808001 3.417376e-39
-0.50597507 0.61504436 1.6843636 3.4166557e-39
-0.47382456 0.61745262 1.688 3.4162956e-39
-0.53421056 0.62115788 1.6799999 2.5865307e-39
-0.51284206 0.62042105 1.6799999 3.1400772e-39
-0.50469387 0.62205678 1.6817777 2.7716507e-39
-0.49482489 0.62425578 1.6844 2.863126e-39
-0.48463306 0.62632626 1.6851428 3.0478704e-39
-0.47454908 0.62521398 1.684 2.7712919e-39
-0.46518642 0.62534547 1.6863998 2.4954183e-39
-0.45654967 0.6283111 1.6880001 2.2195517e-39
-0.4842526 0.63338947 1.6799999 2.4950596e-39
-0.47452632 0.63368422 1.6800001 2.6787292e-39
-0.46391019 0.63399994 1.6832001 2.7709346e-39
-0.45489666 0.63449395 1.6824616 2.6798096e-39
-0.44553363 0.63680261 1.6843636 2.5868923e-39
-0.43564591 0.63634229 1.6861537 2.5868937e-39
-0.42592421 0.63815153 1.6847999 2.9545958e-39
-0.41903859 0.63818246 1.688 3.0471473e-39
-0.44694734 0.6431579 1.6800001 2.4028779e-39
-0.43375435 0.64203507 1.6799999 2.5876139e-39
-0.42437583 0.64336532 1.6817778 3.1386213e-39
-0.41567832 0.6452136 1.6827999 2.7705646e-39
-0.40623358 0.64782351 1.6822857 2.7698528e-39
-0.39518735 0.64819789 1.6847999 2.7705632e-39
-0.38350177 0.64706665 1.6880001 2.3113872e-39
-0.40425062 0.6516571 1.6845714 2.8627659e-39
-0.39485008 0.65393382 1.6822859 2.4032241e-39
-0.38486549 0.65441394 1.6853333 2.8642008e-39
-0.37524658 0.65589017 1.6851428 3.324107e-39
-0.36538786 0.65632761 1.6843077 3.1404276e-39
-0.35468441 0.6551947 1.6851765 3.2315428e-39
-0.34538046 0.65611225 1.6857141 2.7705731e-39
-0.33908069 0.6574316 1.688 1.8497084e-39
-0.38389474 0.66242105 1.6799999 2.9563964e-39
-0.37536839 0.66378945 1.6800001 3.2326246e-39
-0.36498249 0.66364908 1.6800001 3.2322701e-39
-0.35515785 0.66463155 1.6800001 2.5858147e-39
-0.34497836 0.66489524 1.6806668 2.5858147e-39
-0.33588684 0.66549909 1.6849998 2.4943491e-39
-0.32575437 0.66779649 1.688 3.0464397e-39
-0.36105263 0.67052627 1.6799999 2.5876139e-39
-0.35515785 0.67347366 1.6800001 2.2184713e-39
-0.34484211 0.67347378 1.6800002 2.7702101e-39
-0.33402106 0.67485464 1.6863998 2.4950568e-39
-0.32501402 0.67371929 1.6879998 2.5865349e-39
-0.31479716 0.67460775 1.688 3.3237454e-39
-0.30532068 0.67549616 1.6879998 2.9556804e-39
-0.29465964 0.67668068 1.6879998 2.4954267e-39
-0.28725612 0.67816138 1.688 3.0467914e-39
-0.13240702 -0.67096138 1.696 1.8260147e-38
-0.12943158 -0.67096138 1.696 1.8260147e-38
-0.13315088 -0.66426671 1.696 1.8259429e-38
-0.12943158 -0.66649824 1.696 1.8168308e-38
-0.15025964 -0.65013331 1.696 1.8627858e-38
-0.14133334 -0.65162104 1.696 1.8351266e-38
-0.13587837 -0.6550923 1.696 1.8351266e-38
0.5697965 -0.65013331 1.696 1.8904054e-38
0.57425964 -0.65013331 1.696 1.8812578e-38
-0.15025964 -0.64418244 1.696 1.8351629e-38
-0.14430878 -0.6441825 1.696 1.8627133e-38
-0.13835789 -0.64715791 1.696 1.8719325e-38
0.5697965 -0.64715791 1.696 1.8904054e-38
0.57634246 -0.64596772 1.6959999 1.8720383e-38
-0.15100351 -0.63451231 1.696 1.8443464e-38
-0.14473383 -0.63610619 1.696 1.825943e-38
0.58169824 -0.63376844 1.696 1.8720022e-38
0.59508771 -0.63376844 1.696 1.8627103e-38
0.60847718 -0.63228071 1.696 1.8534915e-38
-0.16364913 -0.62037891 1.696 1.8443462e-38
-0.15356569 -0.62533802 1.696 1.8166873e-38
-0.14728421 -0.62930524 1.696 1.8626054e-38
0.58368188 -0.62583393 1.696 1.871966e-38
0.60847718 -0.62930524 1.696 1.8443795e-38
0.61368418 -0.62112278 1.696 1.8811859e-38
-0.17257543 -0.61294031 1.696 1.8536377e-38
-0.16513684 -0.61442804 1.696 1.8536017e-38
-0.15918596 -0.61740351 1.696 1.853566e-38
0.58616138 -0.61740351 1.696 1.8720016e-38
0.59776556 -0.61561823 1.6959999 1.8719662e-38
0.60592681 -0.6135779 1.696 1.899625e-38
-0.17257543 -0.60550171 1.696 1.8627496e-38
-0.16736841 -0.60624564 1.696 1.8628213e-38
0.59955084 -0.60847718 1.696 1.9088086e-38
0.60550171 -0.60847718 1.696 1.9088088e-38
0.61294031 -0.60401404 1.696 1.881222e-38
-0.17406316 -0.59572536 1.696 1.8536022e-38
0.61383295 -0.59419513 1.6959999 1.9181363e-38
-0.18239437 -0.58407861 1.6959999 1.8720053e-38
-0.1770386 -0.58764911 1.696 1.8627856e-38
0.60847718 -0.58318597 1.696 1.9364677e-38
0.61479998 -0.58430177 1.696 1.9364679e-38
-0.18695672 -0.57574731 1.696 1.8904085e-38
0.60847718 -0.57574737 1.696 1.936504e-38
0.61442804 -0.57574737 1.696 1.9365042e-38
-0.20084211 -0.5623579 1.696 1.8995917e-38
-0.19489121 -0.56483746 1.696 1.8811888e-38
0.60847718 -0.56830877 1.696 1.9089174e-38
0.61517191 -0.5668211 1.696 1.9733822e-38
-0.20381753 -0.5549193 1.696 1.9087397e-38
-0.19712281 -0.55566311 1.696 1.9087753e-38
0.62573469 -0.5549193 1.6959999 1.9641265e-38
0.63451231 -0.5526877 1.696 1.9180648e-38
0.64120704 -0.55194384 1.696 1.9179928e-38
-0.21274386 -0.54152983 1.696 1.9087758e-38
-0.20610635 -0.54530627 1.6959997 1.8903728e-38
-0.19786666 -0.54896843 1.696 1.8904088e-38
0.63525611 -0.54748064 1.696 1.9456518e-38
0.6441825 -0.54450518 1.6959997 1.9456874e-38
0.65548909 -0.54271996 1.6959999 1.9456876e-38
-0.2142316 -0.53409123 1.696 1.9179234e-38
-0.20976843 -0.53706664 1.696 1.8995918e-38
0.65459645 -0.53557897 1.696 1.9456875e-38
0.66203511 -0.53557897 1.696 1.9180287e-38
-0.21571931 -0.5247398 1.696 1.9180313e-38
0.65013331 -0.5251649 1.696 1.9456872e-38
-0.22167017 -0.51326317 1.696 1.9455821e-38
-0.21683507 -0.5158667 1.696 1.9271792e-38
0.66203511 -0.51177543 1.696 1.9641263e-38
-0.2305965 -0.5028491 1.696 1.945654e-38
-0.22501755 -0.50470877 1.696 1.9363984e-38
-0.21869472 -0.5073123 1.696 1.9363991e-38
0.65905964 -0.50433683 1.696 1.9640906e-38
0.66203511 -0.50433683 1.696 1.9364679e-38
-0.233997 -0.49498543 1.696 1.9272152e-38
-0.22762105 -0.49838597 1.696 1.8904088e-38
0.65905964 -0.49689823 1.696 1.9456159e-38
0.6645146 -0.49541053 1.696 1.9272482e-38
0.67542458 -0.4924351 1.696 1.9641984e-38
-0.24547367 -0.48499647 1.6959999 1.9455468e-38
-0.23803508 -0.48945963 1.696 1.936363e-38
0.66699415 -0.48846781 1.696 1.9824937e-38
0.67542458 -0.48499644 1.6959996 1.9640906e-38
0.6840533 -0.48291367 1.6959999 1.9733821e-38
-0.25291228 -0.47160703 1.696 1.9456543e-38
-0.2469614 -0.47607017 1.696 1.9548739e-38
0.67478698 -0.47628269 1.696 1.9917493e-38
-0.26035085 -0.46268073 1.696 1.9548739e-38
-0.2539041 -0.46565613 1.696 1.9272152e-38
0.66649824 -0.46268073 1.696 1.9825297e-38
0.67988771 -0.46268073 1.696 1.9919295e-38
0.68583858 -0.46416843 1.696 1.9642347e-38
0.69278127 -0.46367252 1.696 1.9549068e-38
-0.26332629 -0.45460454 1.696 1.9639859e-38
-0.25737542 -0.45970526 1.696 1.9363635e-38
0.66649824 -0.45970526 1.696 2.0194436e-38
0.67988771 -0.45970526 1.696 2.0010768e-38
0.68286318 -0.45970526 1.696 1.9734181e-38
0.69476485 -0.45821753 1.696 1.9272838e-38
0.70145965 -0.45301056 1.696 1.9364678e-38
-0.27225265 -0.44185266 1.696 1.9548739e-38
-0.26715189 -0.4452531 1.696 1.954838e-38
0.69625258 -0.44334036 1.696 1.9456874e-38
0.70666665 -0.44482803 1.696 1.9456515e-38
-0.27374038 -0.43590173 1.696 1.9547662e-38
-0.26927719 -0.43738949 1.696 1.936363e-38
0.70666665 -0.43738946 1.696 1.9640906e-38
0.71601802 -0.43505159 1.696 1.9825297e-38
-0.2772117 -0.42499185 1.696 1.9548021e-38
0.71589047 -0.42459506 1.6959999 1.9825658e-38
0.72228771 -0.42474383 1.696 1.9456876e-38
-0.28355929 -0.4144786 1.6959999 1.9363633e-38
0.71559292 -0.41507366 1.696 1.9641269e-38
0.72154385 -0.41507366 1.696 1.9549071e-38
-0.29084912 -0.40242806 1.696 1.9640218e-38
-0.28712982 -0.40912279 1.696 1.917888e-38
0.71596485 -0.40651932 1.696 1.9733103e-38
0.72414732 -0.40391576 1.696 1.9733106e-38
-0.30200702 -0.39127019 1.696 1.9731695e-38
-0.29648119 -0.39509577 1.696 1.9456544e-38
0.7265029 -0.39622924 1.696 1.9825307e-38
0.73443747 -0.3932538 1.696 1.9733105e-38
0.74237192 -0.39127019 1.696 1.9456875e-38
-0.3037923 -0.38591439 1.6959999 1.9455468e-38
0.73939639 -0.38531926 1.696 1.9549071e-38
0.74237192 -0.38680702 1.696 1.9272125e-38
-0.30795789 -0.37490529 1.696 1.9363273e-38
0.73684609 -0.37299252 1.696 1.9640549e-38
0.74237186 -0.37341753 1.696 1.9363962e-38
-0.31316492 -0.36374736 1.696 1.9086684e-38
0.73557091 -0.36619148 1.696 1.9641268e-38
0.74492234 -0.36364108 1.696 1.9179932e-38
0.75278592 -0.36300349 1.696 1.9456513e-38
-0.32283509 -0.35407719 1.696 1.8718628e-38
-0.31837189 -0.35854033 1.696 1.9270724e-38
0.74534738 -0.35556492 1.696 1.9364322e-38
0.75427365 -0.35556492 1.696 1.9364322e-38
0.76171231 -0.35556492 1.696 1.9087735e-38
-0.32779413 -0.3426713 1.696 1.9179246e-38
0.74733096 -0.34614268 1.696 1.9089172e-38
0.75427365 -0.34515092 1.6959997 1.9179931e-38
0.76394379 -0.34663862 1.696 1.899554e-38
-0.33324915 -0.33473685 1.696 1.9363633e-38
0.75724912 -0.33622456 1.696 1.8903343e-38
0.76509339 -0.33500731 1.6959999 1.9179929e-38
0.77361405 -0.33324915 1.696 1.9179211e-38
-0.3365221 -0.32521543 1.6959999 1.9640215e-38
0.76468772 -0.32729825 1.696 1.9364319e-38
0.77629197 -0.32700068 1.6959999 1.9087016e-38
0.78360301 -0.32666063 1.696 1.5311663e-38
-0.3419629 -0.31475893 1.696 1.9455471e-38
-0.33771226 -0.31985962 1.696 1.9547664e-38
0.77708536 -0.31390879 1.696 1.466523e-38
0.78232777 -0.31475887 1.696 1.0059419e-38
-0.35258949 -0.30200702 1.696 1.9087411e-38
-0.34723368 -0.30557752 1.6959999 1.9271441e-38
0.77708536 -0.30696607 1.696 1.0425995e-38
0.78492069 -0.30438736 1.6959999 1.8165776e-38
0.79295439 -0.30349475 1.696 1.9087734e-38
0.81638598 -0.30461052 1.696 1.871895e-38
0.82494032 -0.30275089 1.696 1.8901906e-38
-0.36300349 -0.29010525 1.696 1.9455472e-38
-0.35615999 -0.29427084 1.6959999 1.9362914e-38
0.78849125 -0.29903156 1.696 1.9088086e-38
0.79592973 -0.29704794 1.696 1.9088091e-38
0.80336845 -0.29308069 1.696 1.871967e-38
0.81675792 -0.29456842 1.6959997 1.8719669e-38
0.8250891 -0.29397333 1.6959999 1.8903344e-38
-0.36399531 -0.28415439 1.696 1.9547668e-38
-0.35854033 -0.28564209 1.696 1.9455114e-38
0.80604631 -0.28355929 1.6959999 1.8811864e-38
0.81567591 -0.2838839 1.6959999 1.8719669e-38
0.82568413 -0.28415439 1.696 1.89037e-38
0.83163506 -0.28415439 1.696 1.8258332e-38
-0.37192982 -0.27225265 1.696 1.9271443e-38
-0.36746666 -0.27522805 1.696 1.9363997e-38
0.80634385 -0.27522808 1.696 1.8811506e-38
0.81576604 -0.27522808 1.696 1.8719669e-38
0.82568419 -0.27522808 1.696 1.871895e-38
0.83163506 -0.27374035 1.696 1.8626033e-38
-0.37368804 -0.26521975 1.6959999 1.9547668e-38
0.80528122 -0.26715189 1.696 1.8719306e-38
0.81576604 -0.26630175 1.696 1.8994814e-38
0.82568425 -0.26481405 1.6959997 1.8718947e-38
0.83461046 -0.26481399 1.6959997 1.871859e-38
0.84287566 -0.26365688 1.696 1.8626398e-38
-0.38383159 -0.25439999 1.696 1.9455472e-38
-0.3783766 -0.25638363 1.696 2.0007569e-38
0.80783159 -0.25588772 1.696 1.8534557e-38
0.81080699 -0.25588772 1.696 1.8902262e-38
0.82865965 -0.25588772 1.696 1.8627476e-38
0.8349824 -0.25477195 1.696 1.8627828e-38
0.84461886 -0.2541295 1.6959999 1.8534201e-38
0.85246319 -0.25142455 1.696 1.8720026e-38
-0.39127019 -0.24398595 1.696 1.9456201e-38
-0.38730291 -0.24745731 1.696 1.917889e-38
0.83758593 -0.24547367 1.696 1.8257614e-38
0.84502453 -0.24547367 1.6959997 1.8534922e-38
0.85395092 -0.24547367 1.696 1.8627832e-38
-0.39484069 -0.23476212 1.6959999 1.9455474e-38
0.83758593 -0.23654737 1.696 1.8718948e-38
0.84536779 -0.23608963 1.6959997 1.8626756e-38
0.85444683 -0.23456375 1.696 1.8442362e-38
-0.40019646 -0.22464561 1.696 1.9364354e-38
-0.39722103 -0.22762105 1.696 1.9732051e-38
0.84948772 -0.22762105 1.696 1.8166136e-38
0.85543865 -0.22464561 1.696 1.8166129e-38
0.86138952 -0.22167017 1.696 1.7889195e-38
-0.40317193 -0.21497545 1.696 1.9271803e-38
0.85767013 -0.21646315 1.696 1.8072864e-38
0.86436492 -0.2157193 1.696 1.7981026e-38
0.87031579 -0.2157193 1.696 1.8073938e-38
-0.41606548 -0.20480937 1.696 1.9270724e-38
-0.40763509 -0.20976843 1.696 1.9639505e-38
0.86463541 -0.20571099 1.6959999 1.7889548e-38
0.87031579 -0.20530528 1.696 1.8073576e-38
-0.42251229 -0.19489123 1.696 1.9271443e-38
-0.4180491 -0.19637895 1.696 1.9271084e-38
0.8647368 -0.19526315 1.696 1.7796999e-38
0.87031579 -0.19489123 1.696 1.7982109e-38
-0.42585966 -0.1833614 1.696 1.9179243e-38
0.86634851 -0.18794854 1.696 1.798139e-38
0.87031579 -0.18745263 1.696 1.8074661e-38
-0.43391812 -0.17207952 1.696 1.8902301e-38
-0.42920703 -0.17480703 1.696 1.8810463e-38
-0.44185266 -0.16513684 1.696 1.8533526e-38
-0.4388772 -0.16513684 1.696 1.9178885e-38
-0.44397792 -0.15536039 1.696 1.8810466e-38
-0.45077896 -0.14282104 1.696 1.8625e-38
-0.4478035 -0.14579648 1.696 1.8533162e-38
-0.45598596 -0.13463859 1.696 1.862536e-38
-0.46416843 -0.12496842 1.696 1.8441683e-38
-0.45970526 -0.12943158 1.696 1.8256577e-38
-0.47160703 -0.11157895 1.696 1.8347688e-38
-0.4686316 -0.11455438 1.696 1.8349123e-38
-0.47339231 -0.10622315 1.6959999 1.7887436e-38
-0.4827649 -0.092982456 1.696 1.8164736e-38
-0.47681403 -0.097445607 1.696 1.7888512e-38
-0.48588911 -0.085395083 1.6959999 1.7704836e-38
-0.49317893 -0.075129822 1.696 1.7703402e-38
-0.48945963 -0.078849122 1.696 1.7887788e-38
-0.5028491 -0.060996491 1.696 1.7244221e-38
-0.4976421 -0.067691229 1.696 1.7611208e-38
-0.5102877 -0.053557895 1.696 1.7243142e-38
-0.50493193 -0.056830876 1.6959999 1.6967634e-38
-0.51375908 -0.045623392 1.696 1.724314e-38
-0.52218944 -0.032729823 1.696 1.6966555e-38
-0.51921403 -0.035705261 1.696 1.7059109e-38
-0.52590877 -0.024547368 1.696 1.6691045e-38
-0.5326035 -0.016364912 1.696 1.659885e-38
-0.52665263 -0.019340349 1.696 1.6691041e-38
-0.54103392 -0.0044631581 1.696 1.6505216e-38
-0.53706664 -0.0074385963 1.696 1.6781442e-38
-0.54301757 0.0044631581 1.696 1.6228991e-38
-0.54376143 0.014877193 1.696 1.6044598e-38
-0.5549193 0.028266668 1.696 1.5676183e-38
-0.5623579 0.046119291 1.696 1.530883e-38
-0.55610943 0.043738946 1.6959999 1.5584692e-38
-0.57277191 0.05802105 1.696 1.5491425e-38
-0.56632513 0.055045608 1.696 1.5307752e-38
-0.58169824 0.069922805 1.696 1.5215914e-38
-0.57574743 0.064822055 1.696 1.5399585e-38
-0.5697965 0.062484212 1.696 1.5399228e-38
-0.58169824 0.07587368 1.696 1.5123718e-38
-0.57872277 0.074385971 1.696 1.5123718e-38
-0.58566546 0.084799998 1.696 1.4939327e-38
-0.59293872 0.096371152 1.696 1.4754578e-38
-0.58764911 0.093726315 1.696 1.4938608e-38
-0.59707129 0.10562807 1.696 1.466238e-38
-0.61145264 0.11752982 1.696 1.4477277e-38
-0.60490668 0.1139593 1.6959999 1.4477636e-38
-0.59955084 0.11157895 1.696 1.4478349e-38
-0.61219645 0.12422456 1.696 1.429324e-38
-0.60847718 0.12050527 1.696 1.4477274e-38
-0.22241402 0.12571228 1.696 2.3967795e-39
-0.21609123 0.12682807 1.696 6.8145495e-39
-0.20594285 0.12815639 1.696 1.5843204e-38
-0.19489123 0.12943158 1.696 1.7316495e-38
-0.62037891 0.13835789 1.696 1.3925891e-38
-0.61740351 0.13240702 1.696 1.4109566e-38
-0.20322247 0.1335972 1.6959999 1.7686734e-38
-0.19489123 0.13389474 1.696 1.7409047e-38
-0.1844772 0.13538244 1.6959997 1.7132466e-38
-0.17505497 0.13637426 1.696 1.7131743e-38
-0.16513684 0.13835789 1.696 1.7039904e-38
-0.6243462 0.14629239 1.696 1.3741857e-38
-0.21423158 0.14579648 1.696 5.9901978e-39
-0.20976843 0.14579648 1.696 5.89584e-39
-0.18224561 0.14207719 1.696 1.7317218e-38
-0.17406315 0.14430878 1.696 1.7132105e-38
-0.16513684 0.14430876 1.696 1.7131743e-38
-0.15844211 0.14505263 1.696 1.7593072e-38
-0.64120704 0.15918596 1.696 1.3740431e-38
-0.63451231 0.15844211 1.696 1.3648231e-38
-0.62781751 0.15174736 1.696 1.3649311e-38
-0.21472749 0.1542269 1.696 6.3564678e-39
-0.20976843 0.15472281 1.696 6.9049711e-39
-0.15472281 0.15174736 1.696 1.7503045e-38
-0.64418244 0.16563274 1.696 1.3464551e-38
-0.63674384 0.16216141 1.696 1.3648228e-38
-0.21274386 0.16513684 1.696 7.0029218e-39
-0.20976843 0.16216141 1.696 6.8167341e-39
-0.65013331 0.17555088 1.696 1.3279806e-38
-0.64715791 0.17406316 1.696 1.3463112e-38
-0.21274386 0.17406316 1.696 6.8192452e-39
-0.20976843 0.17406315 1.696 6.8185278e-39
-0.65225857 0.18511479 1.696 1.2911022e-38
-0.64715791 0.18001403 1.696 1.3095412e-38
-0.21274386 0.18001403 1.696 7.5553921e-39
-0.20976843 0.18298946 1.696 1.0042096e-38
-0.66203511 0.19786666 1.696 1.2819546e-38
-0.65806782 0.19290762 1.696 1.2911022e-38
-0.67096138 0.20976843 1.696 1.2819181e-38
-0.66679579 0.20500772 1.6959999 1.2635151e-38
-0.67542458 0.2167111 1.696 1.2634791e-38
-0.67914385 0.22390175 1.696 1.2358204e-38
-0.68435085 0.23505965 1.696 1.217381e-38
-0.68881404 0.2469614 1.696 1.2264565e-38
-0.12348069 0.24844912 1.696 7.7336121e-39
-0.69439304 0.25477195 1.696 1.1896504e-38
-0.12050527 0.25142455 1.696 5.0606577e-39
-0.11418245 0.25402808 1.696 6.0791466e-39
-0.10711579 0.25588772 1.696 6.5401248e-39
-0.70454133 0.268002 1.696 1.1620277e-38
-0.69625258 0.26035085 1.696 1.180467e-38
-0.11306667 0.26035085 1.696 6.1713437e-39
-0.10562807 0.26183859 1.696 6.5404849e-39
-0.097445607 0.26555789 1.696 6.6334008e-39
-0.086287722 0.26927719 1.696 6.6337539e-39
-0.71261758 0.27522805 1.696 1.1895419e-38
-0.70785683 0.2740379 1.6959999 1.1803943e-38
-0.081824556 0.27225265 1.696 6.8174319e-39
-0.075873688 0.27423626 1.696 7.1844236e-39
-0.066352278 0.27760839 1.6959999 6.9096262e-39
-0.060996491 0.28117895 1.696 6.9099807e-39
-0.054450531 0.28236914 1.6959999 7.0943776e-39
-0.044844113 0.28372934 1.696 7.0947405e-39
-0.034812629 0.28593963 1.6959999 6.9107024e-39
-0.028266668 0.28712982 1.696 7.4606391e-39
-0.72154385 0.29754382 1.696 1.1068176e-38
-0.71856838 0.29605612 1.696 1.1160011e-38
-0.024547368 0.29084912 1.696 6.9099807e-39
-0.015089725 0.29265565 1.696 6.725595e-39
-0.0044631581 0.29754382 1.696 6.8181466e-39
0.0029754387 0.29754382 1.696 6.9099877e-39
0.011901754 0.29903156 1.696 6.9107038e-39
-0.72451931 0.30498245 1.6959999 1.1159294e-38
0.0059508774 0.30200702 1.696 7.0958195e-39
0.014579648 0.3037923 1.6959999 7.0954622e-39
0.025291229 0.30597427 1.696 7.1880179e-39
0.03421754 0.30795789 1.696 7.2802065e-39
0.044631578 0.30795789 1.696 7.0958223e-39
0.055045616 0.30795789 1.696 7.2798534e-39
0.060996491 0.30795789 1.696 7.2794919e-39
0.087775439 0.30795789 1.696 7.2791388e-39
0.090750881 0.30795789 1.696 7.2802108e-39
-0.73225546 0.31628913 1.6959999 1.0423166e-38
-0.7265029 0.31192514 1.696 1.1067811e-38
0.046119295 0.31093332 1.696 7.0961796e-39
0.066947371 0.31093332 1.696 7.0961796e-39
0.076617539 0.31167719 1.696 7.0958153e-39
0.084056139 0.31167719 1.696 7.2798548e-39
0.095214032 0.31242105 1.696 7.1880151e-39
0.10637193 0.31465265 1.696 7.1883753e-39
0.11455438 0.31688419 1.696 7.2802108e-39
0.12467088 0.31866944 1.6959999 7.0965412e-39
0.13538246 0.31985962 1.696 7.279136e-39
0.14282104 0.31985962 1.696 7.0954608e-39
-0.73741287 0.32581052 1.696 1.0606839e-38
0.15561542 0.32343018 1.6959999 7.0958237e-39
0.16588071 0.32506669 1.696 7.0951062e-39
0.17406316 0.32432282 1.696 7.095102e-39
0.18447718 0.32581052 1.696 7.0958265e-39
0.19414738 0.32804209 1.696 7.1883767e-39
0.20530525 0.32878596 1.696 7.556799e-39
0.2157193 0.32878596 1.696 7.6493492e-39
0.22464561 0.32878596 1.696 7.6497149e-39
0.23505965 0.32878596 1.696 7.5571648e-39
0.24547367 0.32878596 1.696 7.5575207e-39
0.25142455 0.32878596 1.696 7.3734868e-39
-0.74485141 0.33473685 1.696 1.0607196e-38
0.20530528 0.33176142 1.696 7.3727665e-39
0.21631439 0.33295161 1.6959999 7.5571564e-39
0.22464561 0.33324912 1.696 7.6497135e-39
0.23406784 0.33275321 1.696 7.6497205e-39
0.24844912 0.33176142 1.696 7.6497135e-39
0.25489593 0.33473682 1.696 7.2816569e-39
-0.75189334 0.34485334 1.6959999 1.0697955e-38
-0.74832278 0.34515086 1.696 1.0607196e-38
0.25588772 0.34068772 1.696 7.4660482e-39
0.26481402 0.34663859 1.696 7.2820184e-39
0.27522805 0.34812632 1.696 7.4653321e-39
-0.75328183 0.35358128 1.696 1.0697235e-38
-0.74832278 0.35258949 1.696 1.0789781e-38
0.26927719 0.35854033 1.696 7.0990635e-39
0.27607819 0.35598993 1.696 7.3738525e-39
0.28192282 0.35630876 1.696 6.8210431e-39
-0.76022458 0.36300349 1.696 1.0238776e-38
0.26927719 0.36449122 1.696 6.6373637e-39
0.27522808 0.36449122 1.696 6.9135904e-39
0.28192282 0.36374736 1.696 6.8196039e-39
-0.76468772 0.37192985 1.696 1.0421724e-38
0.26561511 0.37524858 1.6959997 5.8061695e-39
0.27522805 0.37490523 1.6959997 5.8068827e-39
0.28117895 0.37788069 1.696 5.2533544e-39
-0.77212632 0.38680702 1.696 9.2253419e-39
0.26927719 0.38234386 1.696 4.7923749e-39
0.27522808 0.38234386 1.696 4.6079878e-39
0.28266668 0.38531932 1.696 3.9626086e-39
-0.77510172 0.39275789 1.696 9.5008456e-39
0.28266668 0.39127019 1.696 4.6997715e-39
-0.79592979 0.40912279 1.696 9.4100905e-39
