ply
format ascii 1.0
element vertex 984
property float x
property float y
property float z
property float normal_x
property float normal_y
property float normal_z
property uchar red
property uchar green
property uchar blue
property uchar alpha
end_header
0.00753684 -0.0200982 0.716 0 0 0 157 170 204 255
0.0196544 0.0127175 0.659 0 0 0 178 193 183 255
-0.0585965 -0.0717807 0.835 0 0 0 187 157 160 255
0.0175263 0.0233684 0.666 0 0 0 129 132 113 255
0.0323228 0.0103895 0.658 0 0 0 186 189 185 255
0.0208105 0.0127175 0.659 0 0 0 187 191 183 255
-0.0597684 -0.00468772 0.668 0 0 0 140 151 42 255
-0.0595895 0.0233684 0.666 0 0 0 134 143 119 255
0.0535053 0.0209368 0.663 0 0 0 186 189 172 255
0.00148246 -0.0741228 0.845 0 0 0 191 187 200 255
-0.0101561 -0.0623877 0.827 0 0 0 163 158 146 255
-0.0494158 -0.0120526 0.687 0 0 0 63 55 21 255
-0.0270526 -0.0459895 0.771 0 0 0 187 174 156 255
-0.0139579 0.0186105 0.663 0 0 0 171 173 159 255
0.0510246 0.0139158 0.661 0 0 0 132 132 118 255
0.00494035 -0.0160561 0.704 0 0 0 111 135 209 255
-0.0285263 -0.0613316 0.813 0 0 0 186 174 107 255
-0.0388474 0.0353158 0.671 0 0 0 166 158 120 255
-0.0711579 -0.0478947 0.78 0 0 0 198 200 227 255
-0.0416211 0.00809298 0.659 0 0 0 175 179 173 255
-0.0653158 -0.0307368 0.73 0 0 0 195 194 226 255
0.0108474 -0.0108474 0.687 0 0 0 164 171 169 255
0.0306526 0.0389053 0.672 0 0 0 182 182 141 255
0.038514 -0.037186 0.757 0 0 0 21 80 92 255
-0.0244632 0.0198035 0.664 0 0 0 165 156 152 255
-0.0208105 0.00924912 0.659 0 0 0 184 185 169 255
0.0349474 0.0244632 0.664 0 0 0 183 184 163 255
0.019714 0.0023193 0.661 0 0 0 189 189 175 255
-0.0277667 -0.068686 0.833 0 0 0 188 178 193 255
0.0695789 0.0127561 0.661 0 0 0 184 196 192 255
0.0622175 -0.00598246 0.682 0 0 0 201 202 127 255
0.0177474 -0.0739474 0.843 0 0 0 115 91 0 255
-0.0362175 -0.0557193 0.794 0 0 0 155 147 152 255
0.0622982 0.0340877 0.67 0 0 0 167 169 132 255
-0.039607 0.0198035 0.664 0 0 0 184 183 160 255
-0.0635684 -0.00588596 0.671 0 0 0 133 139 100 255
0.0275439 -0.0482018 0.785 0 0 0 72 89 138 255
-0.0381789 -0.0719526 0.837 0 0 0 182 169 194 255
-0.0190105 -0.0475263 0.774 0 0 0 180 166 153 255
-0.0400246 0.0353158 0.671 0 0 0 153 145 107 255
-0.0725263 -0.0478947 0.78 0 0 0 205 202 107 255
-0.0253105 -0.00964211 0.687 0 0 0 146 136 39 255
0.0474158 -0.0603474 0.819 0 0 0 161 146 114 255
0.0234947 -0.0704842 0.837 0 0 0 133 126 72 255
0.0540912 -0.0356211 0.752 0 0 0 228 237 255 255
0.0249158 -0.0512158 0.789 0 0 0 76 86 133 255
-0.011607 -0.0623877 0.827 0 0 0 175 170 158 255
0.0360035 0.0162596 0.662 0 0 0 170 176 167 255
-0.0289035 0.00924912 0.659 0 0 0 167 174 156 255
0.0611228 0.0340877 0.67 0 0 0 172 173 137 255
-0.0437895 -0.052 0.78 0 0 0 108 120 116 255
-0.0489263 0.0186386 0.664 0 0 0 161 164 143 255
-0.00587719 -0.00352632 0.67 0 0 0 188 189 116 255
0.0565053 0.0341386 0.671 0 0 0 170 169 135 255
0.0464825 -0.038514 0.757 0 0 0 222 229 255 255
0.00952982 -0.0490105 0.776 0 0 0 116 131 133 255
-0.0450895 0.00924912 0.659 0 0 0 123 124 119 255
-0.0604737 -0.0416596 0.766 0 0 0 126 137 179 255
0.0150754 0.0127561 0.661 0 0 0 183 191 172 255
0.0369947 -0.0438456 0.781 0 0 0 121 120 159 255
0.0138737 0.0104053 0.659 0 0 0 181 187 178 255
0.0280842 0.0304246 0.667 0 0 0 178 179 144 255
-0.0199228 -0.00468772 0.668 0 0 0 180 172 79 255
0.0654491 -0.0583351 0.811 0 0 0 197 191 184 255
-0.0135281 -0.0172175 0.701 0 0 0 100 117 155 255
0.0115263 -0.0268947 0.73 0 0 0 186 186 200 255
-0.0654316 0.0257053 0.666 0 0 0 169 166 142 255
-0.0654316 0.0233684 0.666 0 0 0 166 168 142 255
-0.0292281 -0.068686 0.833 0 0 0 181 171 186 255
-0.0148789 -0.0432842 0.771 0 0 0 169 159 135 255
-0.0207105 -0.0524667 0.787 0 0 0 197 199 216 255
-0.00811579 -0.0432842 0.771 0 0 0 148 153 120 255
0.0553281 0.0341386 0.671 0 0 0 166 166 141 255
-0.0292526 -0.0557193 0.794 0 0 0 164 152 158 255
0.0444333 -0.0587667 0.817 0 0 0 188 176 164 255
-0.0435561 0.0353158 0.671 0 0 0 135 142 67 255
-0.0258947 -0.0323684 0.738 0 0 0 80 96 111 255
0.0501333 -0.0356211 0.752 0 0 0 223 234 255 255
0.0291228 0.0244632 0.664 0 0 0 182 185 152 255
-0.0233684 0.0233684 0.666 0 0 0 168 157 138 255
0.0383965 -0.0173404 0.706 0 0 0 145 185 188 255
-0.0508702 0.0057807 0.659 0 0 0 170 176 169 255
0.00117719 0.030607 0.671 0 0 0 29 31 0 255
0.0348421 0.0162596 0.662 0 0 0 182 188 179 255
0.0661 0.0127561 0.661 0 0 0 195 200 198 255
-0.0267474 -0.0158053 0.693 0 0 0 191 192 131 255
-0.0601579 -0.0401053 0.762 0 0 0 81 95 136 255
-0.0462456 0.00924912 0.659 0 0 0 180 181 176 255
-0.0148018 -0.041714 0.767 0 0 0 168 158 136 255
-0.0611228 0.0329123 0.67 0 0 0 130 130 101 255
0.03 -0.0072 0.684 0 0 0 192 188 114 255
-0.0273667 -0.0633754 0.821 0 0 0 194 186 164 255
0.043 -0.0587667 0.817 0 0 0 192 181 169 255
-0.0447333 0.0353158 0.671 0 0 0 115 123 47 255
0.0537474 0.0257053 0.666 0 0 0 184 187 168 255
0.026793 0.0244632 0.664 0 0 0 186 187 164 255
-0.0288596 0.00692632 0.658 0 0 0 175 175 159 255
-0.0512228 -0.0083386 0.679 0 0 0 54 53 3 255
0.0628421 -0.0544632 0.796 0 0 0 200 194 203 255
0.0336807 0.0162596 0.662 0 0 0 187 189 179 255
-0.0359211 -0.0632211 0.819 0 0 0 189 154 141 255
0.0661404 -0.0216228 0.725 0 0 0 217 229 252 255
-0.0196772 -0.0147579 0.701 0 0 0 48 120 157 255
-0.0705772 -0.0648158 0.821 0 0 0 142 134 69 255
0.0450895 0.0057807 0.659 0 0 0 183 191 183 255
0.0500158 0.0209368 0.663 0 0 0 186 189 183 255
0.0514105 0.0257053 0.666 0 0 0 153 159 109 255
-0.0117193 0.0292982 0.668 0 0 0 157 163 138 255
0.00809298 0.0104053 0.659 0 0 0 184 190 181 255
-0.0358333 -0.0587667 0.817 0 0 0 162 145 124 255
-0.0270754 0.0353158 0.671 0 0 0 171 164 135 255
0.0649404 0.0127561 0.661 0 0 0 184 189 187 255
-0.049714 0.00924912 0.659 0 0 0 180 179 168 255
-0.0107649 -0.041714 0.767 0 0 0 170 163 136 255
-0.020907 -0.0147579 0.701 0 0 0 101 128 115 255
0.0195509 -0.0530667 0.796 0 0 0 137 132 136 255
0.0571789 -0.00476491 0.679 0 0 0 207 206 145 255
0.0632439 -0.0390228 0.767 0 0 0 229 236 249 255
-0.026914 0.0257439 0.667 0 0 0 169 173 137 255
0.0511789 0.00116316 0.663 0 0 0 194 196 157 255
0 -0.0494526 0.783 0 0 0 167 166 155 255
0.00695789 0.0127561 0.661 0 0 0 166 171 156 255
-0.0457053 -0.00585965 0.668 0 0 0 152 155 122 255
0.00442632 -0.0693456 0.841 0 0 0 199 196 206 255
-0.0309053 -0.0334807 0.734 0 0 0 40 68 79 255
0.0120702 -0.00844912 0.688 0 0 0 134 144 111 255
-0.0335281 0.00924912 0.659 0 0 0 176 183 167 255
-0.0421842 -0.0108474 0.687 0 0 0 65 59 0 255
-0.0344351 -0.0159877 0.701 0 0 0 192 186 122 255
-0.0757 -0.038514 0.757 0 0 0 199 185 46 255
-0.0666 -0.00233684 0.666 0 0 0 174 165 125 255
-0.046386 0.00347895 0.661 0 0 0 174 185 174 255
0.0630737 -0.0341649 0.749 0 0 0 218 230 255 255
-0.00470877 0.0341386 0.671 0 0 0 160 165 111 255
0.0518737 -0.0160561 0.704 0 0 0 104 131 219 255
-0.00811754 0.00811754 0.661 0 0 0 177 180 150 255
-0.00125614 -0.0226105 0.716 0 0 0 216 204 192 255
-0.0417474 0.0127561 0.661 0 0 0 183 185 169 255
0.0175526 0.0304246 0.667 0 0 0 135 139 102 255
-0.0400842 -0.0263053 0.714 0 0 0 188 190 205 255
-0.0234386 -0.0732456 0.835 0 0 0 193 174 192 255
-0.0421263 0.026914 0.667 0 0 0 155 152 126 255
-0.0401333 -0.0587667 0.817 0 0 0 160 144 117 255
0.00361579 -0.00964211 0.687 0 0 0 48 41 9 255
-0.0619737 -0.0537105 0.785 0 0 0 121 124 105 255
0.0603018 0.0150754 0.661 0 0 0 157 162 163 255
0.0440579 -0.0400526 0.761 0 0 0 168 165 200 255
-0.0631684 -0.0185789 0.706 0 0 0 161 169 118 255
-0.00588596 0.0341386 0.671 0 0 0 155 155 101 255
-0.036007 -0.0321491 0.733 0 0 0 86 90 118 255
-0.0738 -0.0323684 0.738 0 0 0 195 190 21 255
-0.060193 -0.0294561 0.73 0 0 0 129 145 173 255
-0.00927719 0.00811754 0.661 0 0 0 161 164 133 255
-0.0759474 0.0222 0.666 0 0 0 87 75 0 255
-0.0378947 -0.00828947 0.675 0 0 0 73 63 66 255
0.0108632 -0.00965614 0.688 0 0 0 174 180 169 255
-0.0444667 0.026914 0.667 0 0 0 146 146 119 255
0.0407579 -0.0172912 0.704 0 0 0 56 135 168 255
0.00347895 0.0023193 0.661 0 0 0 189 199 196 255
-0.0525789 0.0257053 0.666 0 0 0 164 163 131 255
-0.0477614 0.0198035 0.664 0 0 0 191 189 173 255
0.0395474 0.0186105 0.663 0 0 0 188 193 178 255
0.058993 -0.0269316 0.731 0 0 0 219 230 255 255
-0.0192895 -0.0308632 0.733 0 0 0 88 95 108 255
-0.0226965 -0.0387175 0.761 0 0 0 183 178 166 255
0.0612912 -0.0529333 0.794 0 0 0 193 189 199 255
-0.066021 -0.00589474 0.672 0 0 0 117 138 95 255
0.0712737 0.0280421 0.666 0 0 0 100 111 96 255
0.0671 0.0376702 0.671 0 0 0 180 175 136 255
-0.0265509 0.00461754 0.658 0 0 0 181 179 166 255
-0.046807 0.026914 0.667 0 0 0 111 114 90 255
0.0695456 -0.0596105 0.809 0 0 0 181 180 173 255
0.00585965 0.0281263 0.668 0 0 0 150 152 97 255
-0.00706316 0.0341386 0.671 0 0 0 146 146 91 255
0.0160333 -0.0148 0.703 0 0 0 123 124 174 255
-0.0701088 -0.0383614 0.754 0 0 0 0 49 42 255
0.0421263 -0.00234035 0.667 0 0 0 188 196 119 255
0.0413877 -0.0413877 0.761 0 0 0 185 191 239 255
0.0593211 -0.00116316 0.663 0 0 0 184 187 138 255
0.0229 -0.00723158 0.687 0 0 0 29 47 48 255
-0.0105316 0.026914 0.667 0 0 0 133 136 115 255
0.0543158 -0.00965614 0.688 0 0 0 207 212 140 255
-0.0710175 -0.0322807 0.736 0 0 0 220 216 201 255
0.0383965 -0.0185789 0.706 0 0 0 173 181 185 255
-0.0198702 -0.0581912 0.809 0 0 0 162 157 117 255
-0.0640702 0.0221333 0.664 0 0 0 181 181 154 255
-0.00974035 -0.0158281 0.694 0 0 0 132 126 149 255
0.0489439 -0.0357158 0.754 0 0 0 223 232 255 255
-0.0543386 0.00231228 0.659 0 0 0 177 179 180 255
-0.0291789 -0.0121579 0.693 0 0 0 187 186 125 255
-0.0213614 -0.0387175 0.761 0 0 0 189 178 159 255
0.0581895 -0.00969825 0.691 0 0 0 191 195 130 255
0.00819123 -0.00351053 0.667 0 0 0 214 211 150 255
0.0647456 0.036493 0.671 0 0 0 170 171 125 255
0.0380368 0.00576316 0.657 0 0 0 186 190 179 255
0.00544561 -0.0476491 0.776 0 0 0 166 169 134 255
-0.0659 0.0057807 0.659 0 0 0 161 167 158 255
0.0365474 0.0377263 0.672 0 0 0 181 180 139 255
0.0117895 0.0377263 0.672 0 0 0 118 124 63 255
-0.0457053 0.0281263 0.668 0 0 0 145 143 100 255
-0.00467368 0.0198632 0.666 0 0 0 163 167 130 255
-0.00851053 -0.00972632 0.693 0 0 0 52 60 14 255
-0.0230877 0.00577193 0.658 0 0 0 175 173 169 255
0.00541053 -0.0419316 0.771 0 0 0 201 198 108 255
0.0730702 -0.0657632 0.833 0 0 0 207 201 208 255
0.0339351 0.0304246 0.667 0 0 0 180 182 156 255
0.00812982 0 0.662 0 0 0 211 204 163 255
0.0405895 -0.0241 0.723 0 0 0 187 198 153 255
-0.0412018 -0.00588596 0.671 0 0 0 184 177 109 255
0.0642632 0.0268737 0.666 0 0 0 161 169 118 255
-0.071614 -0.0509561 0.785 0 0 0 122 132 122 255
0.00476491 -0.00595614 0.679 0 0 0 124 127 51 255
-0.0253667 -0.0387175 0.761 0 0 0 187 177 180 255
0.0528 -0.0072 0.684 0 0 0 207 205 119 255
0.0221 0.0197737 0.663 0 0 0 175 177 161 255
0.0318316 0.0377263 0.672 0 0 0 179 178 142 255
-0.0654316 -0.00233684 0.666 0 0 0 176 164 113 255
0.0395526 -0.067386 0.835 0 0 0 191 154 87 255
-0.0125614 -0.0226105 0.716 0 0 0 212 216 180 255
0.00696842 0 0.662 0 0 0 206 199 158 255
-0.0488772 -0.0558597 0.796 0 0 0 173 164 153 255
-0.0431018 -0.00232982 0.664 0 0 0 183 168 137 255
0.00667544 -0.0387175 0.761 0 0 0 204 189 167 255
0.0384123 -0.0357632 0.755 0 0 0 123 145 137 255
0.0611105 -0.00838772 0.683 0 0 0 211 209 146 255
0.0529737 0.0353158 0.671 0 0 0 180 180 153 255
-0.0241404 -0.0156912 0.688 0 0 0 195 195 136 255
0.0263158 -0.0328947 0.75 0 0 0 179 188 204 255
0.0147825 -0.0416596 0.766 0 0 0 213 209 153 255
0.0356246 -0.0452158 0.781 0 0 0 73 82 143 255
-0.012807 -0.0268947 0.73 0 0 0 201 201 142 255
0.0731684 0.0197439 0.662 0 0 0 200 210 202 255
-0.0750316 -0.0541895 0.792 0 0 0 182 177 42 255
-0.0404649 0.00346842 0.659 0 0 0 178 185 174 255
-0.0490667 -0.0335719 0.736 0 0 0 69 85 125 255
0.0185825 0.0174211 0.662 0 0 0 144 155 133 255
-0.0638526 -0.00709474 0.674 0 0 0 107 118 82 255
0.0687 -0.00843684 0.687 0 0 0 201 206 161 255
0.0543386 0.0115614 0.659 0 0 0 159 163 143 255
-0.0240316 -0.0387175 0.761 0 0 0 183 178 166 255
-0.0659 0.00462456 0.659 0 0 0 169 177 167 255
0.0535526 -0.0636842 0.825 0 0 0 170 139 76 255
0.0224281 -0.0343018 0.752 0 0 0 211 209 148 255
-0.032814 0.0281263 0.668 0 0 0 182 180 165 255
0.0441333 0.0185825 0.662 0 0 0 185 192 181 255
0.0674123 -0.0216228 0.725 0 0 0 219 231 255 255
-0.0576825 0.0353158 0.671 0 0 0 148 148 105 255
-0.0464667 -0.0171193 0.697 0 0 0 31 95 196 255
0.0683 -0.00718947 0.683 0 0 0 202 204 148 255
-0.0387175 -0.0400526 0.761 0 0 0 176 176 174 255
0.0235316 -0.0512158 0.789 0 0 0 80 84 131 255
-0.0407719 0.0221333 0.664 0 0 0 172 174 135 255
-0.0674947 -0.0120526 0.687 0 0 0 155 161 109 255
0.00977544 -0.0530667 0.796 0 0 0 123 121 104 255
0.0594105 0.0244632 0.664 0 0 0 185 183 167 255
-0.063293 -0.0735965 0.839 0 0 0 210 210 208 255
-0.00693684 0.00809298 0.659 0 0 0 178 186 179 255
-0.0229333 -0.0144842 0.688 0 0 0 202 194 147 255
0.0407105 0.0244263 0.663 0 0 0 186 185 161 255
-0.0754 -0.0338 0.741 0 0 0 181 178 18 255
-0.0416211 0.00346842 0.659 0 0 0 177 184 172 255
-0.0318772 -0.0512807 0.79 0 0 0 201 198 220 255
-0.00121579 -0.0133737 0.693 0 0 0 130 133 168 255
-0.0186947 0.0245368 0.666 0 0 0 163 164 127 255
-0.0294298 0.0341386 0.671 0 0 0 131 135 95 255
0.0750702 -0.0450421 0.778 0 0 0 186 189 140 255
-0.0728772 0.0305614 0.67 0 0 0 140 134 84 255
-0.0435649 -0.0476491 0.776 0 0 0 222 215 244 255
-0.0150947 -0.0239 0.717 0 0 0 196 193 157 255
0.0418579 -0.0241 0.723 0 0 0 182 194 149 255
0.0221316 -0.0752474 0.841 0 0 0 195 180 144 255
0.0736105 0.0233684 0.666 0 0 0 209 213 171 255
-0.0280421 -0.00584211 0.666 0 0 0 189 186 121 255
0.0678772 -0.0243333 0.73 0 0 0 222 233 255 255
-0.0614737 -0.0294561 0.73 0 0 0 144 160 189 255
-0.0549684 -0.0366456 0.746 0 0 0 72 75 90 255
0.00117193 -0.00234386 0.668 0 0 0 191 187 127 255
-0.0563509 -0.0294561 0.73 0 0 0 76 97 136 255
-0.0288316 -0.0353842 0.747 0 0 0 74 81 94 255
-0.0138421 -0.0512158 0.789 0 0 0 174 170 180 255
0.00372632 -0.0173895 0.708 0 0 0 48 65 130 255
-0.0266719 0.0127561 0.661 0 0 0 173 177 176 255
0.0432105 -0.0619351 0.821 0 0 0 166 147 92 255
-0.00500351 -0.0212649 0.713 0 0 0 197 205 171 255
-0.0505439 0.0329123 0.67 0 0 0 136 136 97 255
-0.00376842 -0.0226105 0.716 0 0 0 198 190 158 255
0.00599123 -0.00718947 0.683 0 0 0 46 57 3 255
-0.0722246 0.0186386 0.664 0 0 0 154 152 121 255
0.00436316 -0.0654474 0.829 0 0 0 116 127 75 255
-0.0373825 -0.0413877 0.761 0 0 0 195 183 173 255
-0.0280982 -0.0293754 0.728 0 0 0 158 161 187 255
-0.0255333 -0.0430035 0.766 0 0 0 166 160 141 255
-0.0153035 0.0341386 0.671 0 0 0 154 152 123 255
-0.0502895 -0.0632211 0.819 0 0 0 164 149 101 255
-0.0695789 0.00695789 0.661 0 0 0 180 182 174 255
0.0215298 -0.041714 0.767 0 0 0 204 211 156 255
-0.0675649 0.0198035 0.664 0 0 0 163 166 149 255
0.0707386 0.0139158 0.661 0 0 0 134 139 137 255
0.0312158 0.0127175 0.659 0 0 0 193 197 186 255
0.00147193 -0.0706526 0.839 0 0 0 203 201 199 255
-0.0110877 -0.0512807 0.79 0 0 0 181 178 179 255
0.0234123 -0.0482018 0.785 0 0 0 50 92 139 255
0.0522632 0.0011614 0.662 0 0 0 192 194 154 255
-0.0100491 -0.0226105 0.716 0 0 0 198 198 166 255
-0.0627544 -0.0307368 0.73 0 0 0 172 168 196 255
-0.0143193 -0.0338456 0.742 0 0 0 113 119 124 255
-0.00584211 0.0222 0.666 0 0 0 153 155 127 255
0.00117018 0.0257439 0.667 0 0 0 129 128 106 255
0.0654316 0.0257053 0.666 0 0 0 173 177 155 255
-0.0508702 0.00809298 0.659 0 0 0 182 182 168 255
0.0537474 0.0268737 0.666 0 0 0 189 191 167 255
-0.0249035 -0.0703158 0.835 0 0 0 190 181 191 255
0.033986 0.0316421 0.668 0 0 0 180 180 155 255
0.0485579 0.0115614 0.659 0 0 0 114 121 107 255
0.0302632 -0.0108947 0.69 0 0 0 183 195 159 255
-0.059207 -0.0430597 0.767 0 0 0 174 180 210 255
0.00124211 -0.0173895 0.708 0 0 0 188 175 209 255
-0.0116842 0.0233684 0.666 0 0 0 151 148 140 255
0.018593 -0.038514 0.757 0 0 0 199 199 167 255
0.0623088 -0.00718947 0.683 0 0 0 202 206 127 255
0.0104368 0.0115965 0.661 0 0 0 186 185 176 255
-0.0275667 -0.0667403 0.827 0 0 0 185 177 186 255
0.0145123 -0.0356211 0.752 0 0 0 195 190 162 255
-0.0011614 0.0150982 0.662 0 0 0 132 140 117 255
0.0695789 0.0115965 0.661 0 0 0 191 196 194 255
0.0695789 0.0104368 0.661 0 0 0 187 196 195 255
-0.0479053 -0.00350526 0.666 0 0 0 185 181 82 255
-0.0594105 0.0198035 0.664 0 0 0 111 116 114 255
-0.0525789 0.0233684 0.666 0 0 0 171 166 140 255
-0.057807 0.00115614 0.659 0 0 0 181 178 183 255
-0.0128526 0.0233684 0.666 0 0 0 149 153 129 255
0.0346211 -0.0399474 0.759 0 0 0 32 78 130 255
0.0411404 0.0340877 0.67 0 0 0 179 179 152 255
0.0556632 0.0127561 0.661 0 0 0 171 178 165 255
-0.0760614 0.0245737 0.667 0 0 0 77 66 0 255
0.0225175 -0.0370877 0.755 0 0 0 203 209 148 255
0.0361228 -0.0174386 0.71 0 0 0 139 171 215 255
0.0642632 0.0257053 0.666 0 0 0 173 180 141 255
-0.0457053 0.0292982 0.668 0 0 0 141 142 124 255
-0.0173421 0.00809298 0.659 0 0 0 180 179 170 255
-0.0575965 0.0329123 0.67 0 0 0 151 152 120 255
0.0684193 0.0115965 0.661 0 0 0 190 198 190 255
-0.0520263 0.00693684 0.659 0 0 0 177 182 178 255
-0.0642316 -0.00832632 0.678 0 0 0 45 55 90 255
-0.00117193 0.0316421 0.668 0 0 0 88 92 91 255
0.0644561 -0.0659211 0.835 0 0 0 194 182 145 255
0.0382333 -0.0160333 0.703 0 0 0 184 206 212 255
-0.0660789 -0.0719526 0.837 0 0 0 169 160 163 255
-0.0620193 -0.00351053 0.667 0 0 0 155 148 109 255
-0.0634737 -0.00470175 0.67 0 0 0 136 138 98 255
0.0623368 0.0080807 0.658 0 0 0 181 186 184 255
0.0490737 0.0268737 0.666 0 0 0 161 164 133 255
-0.0743684 -0.0509561 0.785 0 0 0 181 175 73 255
0.0451947 -0.0670632 0.831 0 0 0 198 167 100 255
0 -0.0654474 0.829 0 0 0 194 187 171 255
-0.0236667 -0.0186842 0.71 0 0 0 160 168 217 255
0.0415579 0.00461754 0.658 0 0 0 185 190 191 255
-0.0574316 -0.00957193 0.682 0 0 0 93 93 0 255
-0.00115614 0.0057807 0.659 0 0 0 160 163 173 255
0.0342912 -0.00236491 0.674 0 0 0 190 179 94 255
-0.0301509 0.0139158 0.661 0 0 0 168 173 158 255
0.0672597 0.0115965 0.661 0 0 0 186 194 187 255
-0.0165684 -0.0524667 0.787 0 0 0 186 195 215 255
0.041814 -0.0172175 0.701 0 0 0 0 107 208 255
-0.0608491 -0.00351053 0.667 0 0 0 149 147 57 255
-0.0350526 0.0257053 0.666 0 0 0 115 122 51 255
-0.0687719 -0.0135088 0.7 0 0 0 171 165 121 255
0.0724421 0.0292105 0.666 0 0 0 128 136 97 255
0 -0.0121228 0.691 0 0 0 144 133 132 255
0.0269404 -0.0134702 0.698 0 0 0 114 154 202 255
0.0346316 0.00461754 0.658 0 0 0 183 188 186 255
0.0315947 -0.0467053 0.783 0 0 0 76 93 142 255
-0.0312158 0.00924912 0.659 0 0 0 176 183 167 255
0.0558105 -0.0228316 0.723 0 0 0 211 221 197 255
0.00882982 -0.0239667 0.719 0 0 0 202 205 231 255
0.00843684 -0.00964211 0.687 0 0 0 123 111 76 255
0.0162351 0.0162351 0.661 0 0 0 175 181 172 255
-0.0138175 -0.0226105 0.716 0 0 0 215 215 197 255
0.0346316 0.0103895 0.658 0 0 0 126 135 96 255
-0.0634947 -0.0396842 0.754 0 0 0 99 117 159 255
-0.0646105 -0.0719526 0.837 0 0 0 187 177 126 255
-0.0502421 -0.00350526 0.666 0 0 0 184 175 105 255
-0.0413877 -0.0387175 0.761 0 0 0 79 82 63 255
0.011614 0.0162596 0.662 0 0 0 183 189 171 255
0.0664 0.0244632 0.664 0 0 0 182 183 164 255
-0.0510421 -0.0366456 0.746 0 0 0 72 80 105 255
-0.0743298 0.0127754 0.662 0 0 0 99 93 0 255
0.049714 0.00462456 0.659 0 0 0 187 193 198 255
-0.042 -0.0574 0.798 0 0 0 163 144 118 255
0.0610211 -0.00598246 0.682 0 0 0 203 202 123 255
0.0418737 0.0244263 0.663 0 0 0 183 186 167 255
0.0121105 -0.041714 0.767 0 0 0 199 196 172 255
-0.0173421 0.00115614 0.659 0 0 0 211 211 209 255
0.0153035 -0.00588596 0.671 0 0 0 107 135 144 255
0.0670561 0.00809298 0.659 0 0 0 186 193 191 255
-0.0543386 0.00693684 0.659 0 0 0 172 172 154 255
-0.0440667 0.00347895 0.661 0 0 0 173 181 174 255
0.0598246 -0.00598246 0.682 0 0 0 209 208 129 255
0.0323228 0.00461754 0.658 0 0 0 186 188 187 255
-0.0267474 -0.0170211 0.693 0 0 0 129 145 130 255
-0.0697368 -0.0368421 0.75 0 0 0 14 49 56 255
0.0231439 -0.0449263 0.776 0 0 0 68 88 132 255
0.0544614 -0.0691807 0.839 0 0 0 197 160 81 255
-0.0232281 0.0162596 0.662 0 0 0 160 156 135 255
-0.0570807 0.0186386 0.664 0 0 0 148 147 109 255
0.0152123 0.0304246 0.667 0 0 0 179 179 161 255
-0.0610263 -0.0474649 0.773 0 0 0 194 192 216 255
0.0220789 -0.0721246 0.839 0 0 0 148 138 85 255
0.0560842 0.0257053 0.666 0 0 0 184 187 166 255
0.0586263 -0.0199579 0.711 0 0 0 217 227 233 255
-0.0280035 -0.0146105 0.694 0 0 0 196 191 136 255
-0.0257053 0.0222 0.666 0 0 0 172 166 147 255
-0.0165053 0.0377263 0.672 0 0 0 151 153 114 255
0.0320421 -0.0400526 0.761 0 0 0 95 112 124 255
0.0492211 0.0316421 0.668 0 0 0 155 164 138 255
-0.0164211 -0.0492632 0.78 0 0 0 187 172 175 255
-0.0766526 0.00348421 0.662 0 0 0 132 122 16 255
0.0427123 0.00692632 0.658 0 0 0 187 191 183 255
0 -0.0238667 0.716 0 0 0 208 211 194 255
-0.00242456 -0.0121228 0.691 0 0 0 172 164 155 255
0.0438667 0.00692632 0.658 0 0 0 187 191 179 255
0.0473298 0.0103895 0.658 0 0 0 119 129 128 255
0.0573386 0.0292544 0.667 0 0 0 150 154 132 255
0.0229 -0.00602632 0.687 0 0 0 54 71 74 255
0.0377263 0.0377263 0.672 0 0 0 179 179 138 255
-0.0150737 -0.0226105 0.716 0 0 0 191 192 174 255
0.0157596 -0.00969825 0.691 0 0 0 128 146 49 255
-0.0163579 0.0198632 0.666 0 0 0 163 163 150 255
-0.0317982 -0.0254386 0.725 0 0 0 163 185 189 255
0.0207105 -0.0483246 0.787 0 0 0 45 72 133 255
0.0114947 -0.0603474 0.819 0 0 0 120 140 99 255
-0.0209667 -0.0172667 0.703 0 0 0 219 210 183 255
0.0362754 0.0292544 0.667 0 0 0 180 182 156 255
0.0666 0.0257053 0.666 0 0 0 182 185 163 255
0.0525053 -0.0109895 0.696 0 0 0 176 190 187 255
0 -0.0226105 0.716 0 0 0 210 213 223 255
0.0252333 -0.037186 0.757 0 0 0 195 199 150 255
0.0397263 0.0268737 0.666 0 0 0 186 183 159 255
-0.0104526 0.0139368 0.662 0 0 0 136 142 134 255
0.0154526 -0.0283298 0.734 0 0 0 174 184 180 255
-0.0200421 0.0377263 0.672 0 0 0 151 150 116 255
0.0347895 0.0023193 0.661 0 0 0 213 210 199 255
0.00125088 -0.020014 0.713 0 0 0 70 142 177 255
0.0276351 -0.0213544 0.716 0 0 0 202 197 142 255
0.0523421 0.0221 0.663 0 0 0 183 185 169 255
0.0152351 0.0316421 0.668 0 0 0 179 178 158 255
0.0415579 0.0103895 0.658 0 0 0 190 191 184 255
-0.0303789 -0.00584211 0.666 0 0 0 199 190 93 255
0.0187228 -0.00234035 0.667 0 0 0 199 192 113 255
-0.0323719 0.0057807 0.659 0 0 0 173 171 167 255
0.0357368 -0.00714737 0.679 0 0 0 192 188 103 255
0.00580702 0.0150982 0.662 0 0 0 149 154 152 255
0.0400246 0.036493 0.671 0 0 0 181 178 140 255
-0.045393 -0.0387175 0.761 0 0 0 44 58 58 255
0.0655298 0.0292544 0.667 0 0 0 180 180 155 255
0.00811754 0.0127561 0.661 0 0 0 186 191 175 255
0.0638772 0.00232281 0.662 0 0 0 206 208 198 255
0.0313263 -0.0313263 0.744 0 0 0 105 115 110 255
-0.00353158 -0.00353158 0.671 0 0 0 181 170 108 255
0.0163825 -0.00234035 0.667 0 0 0 216 207 155 255
-0.00395789 -0.0356211 0.752 0 0 0 139 131 134 255
-0.0779316 0.00232632 0.663 0 0 0 136 127 2 255
0.0611105 -0.00718947 0.683 0 0 0 207 205 135 255
-0.00809298 0.00346842 0.659 0 0 0 181 188 188 255
0.0200263 -0.0400526 0.761 0 0 0 213 209 161 255
-0.0254211 -0.0157368 0.69 0 0 0 203 204 142 255
-0.0426105 -0.0335719 0.736 0 0 0 63 76 106 255
0.0464561 0 0.662 0 0 0 195 179 96 255
-0.0259368 0.0365474 0.672 0 0 0 171 160 116 255
0.0234947 -0.0690158 0.837 0 0 0 148 141 102 255
-0.0438421 -0.0263053 0.714 0 0 0 196 196 225 255
-0.0246842 -0.00587719 0.67 0 0 0 148 152 71 255
0.039186 -0.0134702 0.698 0 0 0 107 134 223 255
0.0158825 -0.062086 0.823 0 0 0 75 104 55 255
-0.0525807 -0.0183421 0.697 0 0 0 133 160 255 255
0.0253965 0.00692632 0.658 0 0 0 187 188 183 255
0.0623368 0.00577193 0.658 0 0 0 191 198 196 255
-0.0672632 -0.0211754 0.71 0 0 0 200 210 232 255
0.034393 -0.034393 0.754 0 0 0 96 108 104 255
-0.0187228 -0.00585088 0.667 0 0 0 158 155 76 255
0.0186912 -0.0400526 0.761 0 0 0 198 194 145 255
-0.0299526 -0.0613316 0.813 0 0 0 176 160 145 255
0.0579825 0.0150754 0.661 0 0 0 163 168 166 255
0.0510246 0.00347895 0.661 0 0 0 194 197 205 255
0.0641842 -0.0584789 0.813 0 0 0 199 190 175 255
-0.0484807 -0.00709474 0.674 0 0 0 145 132 84 255
0.0232982 -0.00116491 0.664 0 0 0 221 213 161 255
0.0257825 0.0304702 0.668 0 0 0 173 174 151 255
-0.00885263 -0.0737719 0.841 0 0 0 201 197 226 255
-0.010414 -0.0325439 0.742 0 0 0 83 102 97 255
-0.00274737 -0.0508263 0.783 0 0 0 176 173 179 255
0.0558316 0.0209368 0.663 0 0 0 188 187 176 255
0.0684193 0.00347895 0.661 0 0 0 198 202 219 255
-0.072007 0.011614 0.662 0 0 0 158 157 133 255
0.0670561 0.00693684 0.659 0 0 0 186 193 193 255
0 -0.0508263 0.783 0 0 0 163 163 165 255
-0.0413193 -0.0335719 0.736 0 0 0 65 74 103 255
0.0511789 -0.00232632 0.663 0 0 0 202 203 128 255
-0.0167509 -0.00837544 0.682 0 0 0 89 93 42 255
0.0330702 -0.034393 0.754 0 0 0 90 125 88 255
-0.0627579 -0.0613316 0.813 0 0 0 218 213 233 255
0.0301754 -0.00965614 0.688 0 0 0 204 197 156 255
-0.0656053 -0.069979 0.831 0 0 0 166 159 143 255
-0.0624 -0.012 0.684 0 0 0 102 106 82 255
-0.00275439 -0.0523333 0.785 0 0 0 190 189 196 255
-0.00707368 0.0353684 0.672 0 0 0 153 148 95 255
-0.0130579 -0.0609368 0.827 0 0 0 188 185 179 255
-0.0203684 -0.0475263 0.774 0 0 0 180 166 155 255
0.00376842 -0.0226105 0.716 0 0 0 212 211 218 255
-0.0734211 -0.00828947 0.675 0 0 0 138 130 40 255
0.037186 -0.037186 0.757 0 0 0 2 62 74 255
0.0611825 0.00577193 0.658 0 0 0 192 197 196 255
0.0563509 -0.025614 0.73 0 0 0 216 227 246 255
0.017807 -0.0241667 0.725 0 0 0 215 221 237 255
0.058421 0.0257053 0.666 0 0 0 186 183 163 255
-0.0127947 0.0186105 0.663 0 0 0 154 156 142 255
-0.0270754 0.0341386 0.671 0 0 0 170 172 147 255
-0.0254351 0.0057807 0.659 0 0 0 174 173 166 255
-0.057807 0.0057807 0.659 0 0 0 172 173 166 255
0.0366281 -0.0549421 0.803 0 0 0 193 183 173 255
0.0514491 -0.00598246 0.682 0 0 0 183 176 92 255
-0.0283316 -0.0445211 0.769 0 0 0 181 165 136 255
-0.0104684 0.0174474 0.663 0 0 0 157 157 159 255
0.00396842 -0.0357158 0.754 0 0 0 147 136 37 255
-0.0352632 0.0329123 0.67 0 0 0 81 83 0 255
0.0654316 0.0268737 0.666 0 0 0 173 177 155 255
0.062621 0.00347895 0.661 0 0 0 201 207 216 255
-0.00250175 -0.020014 0.713 0 0 0 34 104 160 255
-0.0455719 -0.0415509 0.764 0 0 0 126 116 94 255
-0.0222667 -0.00468772 0.668 0 0 0 186 175 72 255
-0.0583895 -0.0488842 0.774 0 0 0 149 144 164 255
0.0175526 -0.00234035 0.667 0 0 0 211 201 150 255
0.0502526 -0.00598246 0.682 0 0 0 188 181 97 255
0.0482105 -0.00843684 0.687 0 0 0 204 194 129 255
0.0587509 -0.0242667 0.728 0 0 0 218 227 242 255
0.0392491 0.00461754 0.658 0 0 0 181 188 188 255
-0.0754912 0.0011614 0.662 0 0 0 118 108 0 255
0.00964211 -0.00723158 0.687 0 0 0 175 166 124 255
0.00132281 -0.0357158 0.754 0 0 0 195 175 100 255
0.0448 0.0389053 0.672 0 0 0 132 139 84 255
-0.0623912 -0.00588596 0.671 0 0 0 152 159 120 255
0.0611 -0.0286 0.741 0 0 0 219 230 255 255
0.0689842 -0.0419316 0.771 0 0 0 219 235 255 255
0.0634912 0.00577193 0.658 0 0 0 187 195 192 255
0.00235088 0.0305614 0.67 0 0 0 18 36 0 255
0.00235088 0.029386 0.67 0 0 0 36 42 4 255
0.00744211 -0.0186053 0.707 0 0 0 115 144 202 255
-0.061214 0.0341386 0.671 0 0 0 140 141 120 255
0.0429474 -0.0227368 0.72 0 0 0 195 197 158 255
-0.0098807 -0.0172912 0.704 0 0 0 95 95 150 255
0.0278333 -0.0688509 0.835 0 0 0 148 145 121 255
-0.0641526 -0.0239 0.717 0 0 0 201 211 248 255
-0.0227649 -0.0569123 0.811 0 0 0 166 160 171 255
0.0564281 -0.0269316 0.731 0 0 0 219 231 255 255
0.0346316 0.00692632 0.658 0 0 0 187 188 183 255
-0.0566509 0.00231228 0.659 0 0 0 178 179 174 255
-0.0385579 0.0233684 0.666 0 0 0 188 188 163 255
0.0603018 0.00347895 0.661 0 0 0 203 203 219 255
-0.0439333 0.00924912 0.659 0 0 0 105 116 35 255
-0.0280421 -0.00701053 0.666 0 0 0 184 190 140 255
0.0415754 -0.0110053 0.697 0 0 0 183 193 119 255
0.0199211 -0.038514 0.757 0 0 0 203 204 172 255
-0.0101561 -0.0638386 0.827 0 0 0 128 132 99 255
0.0134386 -0.0403158 0.766 0 0 0 203 198 145 255
-0.0614614 0.00115965 0.661 0 0 0 183 180 184 255
-0.0263789 -0.0226105 0.716 0 0 0 195 188 145 255
-0.0105158 0.0233684 0.666 0 0 0 131 128 120 255
-0.076214 -0.036793 0.749 0 0 0 189 176 30 255
0.039186 -0.0122456 0.698 0 0 0 12 125 144 255
-0.00812982 0 0.662 0 0 0 205 207 165 255
-0.0360474 -0.0387175 0.761 0 0 0 144 137 164 255
-0.0509561 -0.0523333 0.785 0 0 0 139 136 141 255
0.0551456 -0.0269316 0.731 0 0 0 218 229 255 255
-0.0617842 -0.0632211 0.819 0 0 0 160 148 155 255
0.0251228 -0.0213544 0.716 0 0 0 217 211 122 255
0.0668719 -0.0597579 0.811 0 0 0 173 166 143 255
0.0682123 0.0104053 0.659 0 0 0 186 193 191 255
-0.0249035 -0.0717807 0.835 0 0 0 193 180 189 255
0.00820351 0.0281263 0.668 0 0 0 186 185 161 255
-0.0776947 0.0200123 0.671 0 0 0 104 95 0 255
-0.0635684 0.0353158 0.671 0 0 0 152 152 123 255
0.0336807 -0.0011614 0.662 0 0 0 213 211 143 255
0.0210316 0.0245368 0.666 0 0 0 189 190 183 255
0.0383263 0.0162596 0.662 0 0 0 153 168 163 255
-0.0494877 -0.0132772 0.688 0 0 0 103 100 23 255
0.0552456 0.0317368 0.67 0 0 0 151 151 137 255
-0.0707386 0.00347895 0.661 0 0 0 178 184 176 255
0.0568228 0.00347895 0.661 0 0 0 197 201 215 255
0.0452947 0.0011614 0.662 0 0 0 215 213 187 255
0.0556632 0.0139158 0.661 0 0 0 177 178 173 255
0.019 -0.0228 0.722 0 0 0 218 224 226 255
0.0670561 0.0104053 0.659 0 0 0 185 192 190 255
-0.0750193 -0.0172175 0.701 0 0 0 144 137 0 255
-0.0257053 0.0210316 0.666 0 0 0 172 164 155 255
-0.0608684 -0.0459895 0.771 0 0 0 180 189 218 255
-0.0339351 -0.0752474 0.841 0 0 0 179 170 168 255
-0.0617404 0.0198035 0.664 0 0 0 148 149 131 255
-0.0757193 0.0151439 0.664 0 0 0 96 87 4 255
0.0198632 0.0245368 0.666 0 0 0 174 188 190 255
0.0253474 -0.00965614 0.688 0 0 0 192 169 97 255
0.0128526 0.0257053 0.666 0 0 0 177 176 97 255
-0.0734211 -0.0106579 0.675 0 0 0 131 126 30 255
-0.032886 -0.0600526 0.815 0 0 0 172 141 92 255
0.0307789 -0.0256491 0.731 0 0 0 207 214 171 255
-0.0773474 0.0175789 0.668 0 0 0 106 96 6 255
0.00868246 -0.0186053 0.707 0 0 0 106 135 193 255
0.0176842 0.0377263 0.672 0 0 0 140 150 106 255
0.00117719 0.0317842 0.671 0 0 0 38 52 52 255
0.0687298 0.0244632 0.664 0 0 0 186 185 161 255
0.0554947 0.00924912 0.659 0 0 0 192 199 197 255
-0.0525614 -0.038107 0.749 0 0 0 56 77 100 255
-0.0139579 0.0162842 0.663 0 0 0 152 158 149 255
-0.0385684 -0.0120526 0.687 0 0 0 78 77 11 255
-0.00697895 0.0162842 0.663 0 0 0 167 168 145 255
0.0436421 -0.0060614 0.691 0 0 0 209 200 126 255
0.0403298 -0.0619351 0.821 0 0 0 192 168 133 255
-0.0605965 -0.0537105 0.785 0 0 0 123 129 118 255
0.0635877 0.0115614 0.659 0 0 0 179 182 165 255
-0.0141263 0.0341386 0.671 0 0 0 156 156 124 255
-0.0585965 0.0304702 0.668 0 0 0 126 130 94 255
-0.0360474 -0.0400526 0.761 0 0 0 184 171 171 255
-0.0151211 -0.00116316 0.663 0 0 0 175 169 48 255
0.0543386 0.0104053 0.659 0 0 0 169 178 191 255
0.00628947 -0.0239 0.717 0 0 0 204 210 203 255
0.0080807 0.00577193 0.658 0 0 0 183 180 184 255
-0.0538754 -0.038107 0.749 0 0 0 51 76 90 255
-0.0671386 -0.0493263 0.781 0 0 0 129 132 154 255
0.0477579 -0.0134702 0.698 0 0 0 102 138 185 255
-0.0143579 -0.00957193 0.682 0 0 0 101 93 30 255
-0.0777 -0.0135667 0.703 0 0 0 139 129 23 255
-0.018907 -0.0683561 0.829 0 0 0 194 183 191 255
0.0487053 0.0150754 0.661 0 0 0 129 126 147 255
-0.0777 -0.0123333 0.703 0 0 0 138 124 12 255
-0.0702105 0.0280842 0.667 0 0 0 182 178 159 255
-0.0112263 -0.0199579 0.711 0 0 0 107 128 166 255
-0.00351579 -0.00117193 0.668 0 0 0 151 149 91 255
-0.0745684 -0.0386158 0.759 0 0 0 173 176 68 255
0.0351053 0.0292544 0.667 0 0 0 180 182 156 255
0.0496386 0.00692632 0.658 0 0 0 187 192 188 255
0.0175263 0.0268737 0.666 0 0 0 140 150 117 255
-0.020407 -0.0280596 0.727 0 0 0 156 168 164 255
-0.0393088 0.0057807 0.659 0 0 0 173 174 169 255
0.0505263 -0.0214737 0.72 0 0 0 208 207 144 255
0.00603509 -0.0132772 0.688 0 0 0 208 200 152 255
0.0498649 0.00347895 0.661 0 0 0 192 197 207 255
0.00545965 -0.0491368 0.778 0 0 0 155 161 152 255
0.0356842 -0.00594737 0.678 0 0 0 196 188 98 255
0.0337737 -0.0704842 0.837 0 0 0 159 154 99 255
-0.0562807 -0.0562807 0.802 0 0 0 172 172 174 255
-0.0485579 0.00924912 0.659 0 0 0 175 181 172 255
-0.0162351 0.00115965 0.661 0 0 0 208 204 210 255
0.0308772 -0.0148211 0.704 0 0 0 94 118 199 255
-0.0332053 -0.0147579 0.701 0 0 0 209 197 131 255
-0.0162842 0.0162842 0.663 0 0 0 153 158 141 255
0.0140632 -0.00351579 0.668 0 0 0 203 202 123 255
-0.0184702 0.00230877 0.658 0 0 0 191 196 194 255
-0.0540702 0.0329123 0.67 0 0 0 133 137 101 255
0.0219667 0.0104053 0.659 0 0 0 178 180 177 255
-0.0488421 -0.0170947 0.696 0 0 0 111 140 173 255
0.0165053 0.0377263 0.672 0 0 0 156 165 121 255
0.0392491 0.0103895 0.658 0 0 0 138 139 116 255
-0.0475456 0.00347895 0.661 0 0 0 178 186 170 255
0.0327965 -0.0201825 0.719 0 0 0 217 216 194 255
-0.0463579 -0.032193 0.734 0 0 0 62 77 115 255
0.0367368 -0.0122456 0.698 0 0 0 183 213 201 255
0.0176298 -0.0447526 0.773 0 0 0 209 209 165 255
0.0623368 0.00692632 0.658 0 0 0 189 199 196 255
-0.0186105 -0.00116316 0.663 0 0 0 195 190 81 255
0.0521842 0.0127561 0.661 0 0 0 129 138 139 255
-0.0502211 -0.032193 0.734 0 0 0 67 75 111 255
-0.0257439 -0.00351053 0.667 0 0 0 191 174 82 255
0.073993 0.0127175 0.659 0 0 0 219 208 48 255
0.0336298 0.00115965 0.661 0 0 0 207 204 151 255
0.00121228 -0.0121228 0.691 0 0 0 158 147 146 255
0.0132772 -0.00965614 0.688 0 0 0 62 77 42 255
0.0140211 0.0268737 0.666 0 0 0 187 187 160 255
0.0233684 -0.00233684 0.666 0 0 0 205 196 126 255
-0.0104421 -0.0339368 0.744 0 0 0 117 130 137 255
0.0520263 0.0104053 0.659 0 0 0 150 159 158 255
0.0545035 0.00347895 0.661 0 0 0 193 199 204 255
-0.0296421 -0.0185263 0.704 0 0 0 126 136 187 255
0.0407105 0.0197737 0.663 0 0 0 186 189 172 255
-0.0210632 -0.00351053 0.667 0 0 0 203 189 80 255
0.0223333 -0.00470175 0.67 0 0 0 98 105 48 255
0.0461754 0.00692632 0.658 0 0 0 186 190 179 255
0.0227649 -0.0611807 0.811 0 0 0 185 176 118 255
-0.0108912 -0.0462877 0.776 0 0 0 161 157 138 255
0.0553281 0.0376702 0.671 0 0 0 183 181 150 255
-0.0315368 -0.0354789 0.749 0 0 0 57 71 87 255
-0.00547368 -0.0478947 0.78 0 0 0 171 171 130 255
-0.0187509 0.0316421 0.668 0 0 0 146 149 86 255
0.0174474 0.0197737 0.663 0 0 0 138 147 137 255
0.0103895 0.00577193 0.658 0 0 0 183 188 184 255
0.0483246 -0.0441825 0.787 0 0 0 56 134 116 255
-0.0668 0.0304702 0.668 0 0 0 158 160 132 255
-0.0444 0.0233684 0.666 0 0 0 126 127 77 255
-0.0779088 -0.0268211 0.728 0 0 0 148 141 16 255
-0.0060614 -0.0109105 0.691 0 0 0 167 164 138 255
0.0362842 -0.0416596 0.766 0 0 0 43 72 121 255
0.0548105 -0.0401053 0.762 0 0 0 0 44 91 255
0.0442947 -0.0470632 0.789 0 0 0 110 104 128 255
-0.055 -0.0651316 0.825 0 0 0 139 128 109 255
0.0492105 -0.0622368 0.825 0 0 0 159 132 77 255
-0.0508702 0.00924912 0.659 0 0 0 182 182 170 255
0.0579474 -0.0283298 0.734 0 0 0 217 230 255 255
0.030607 0.036493 0.671 0 0 0 182 180 147 255
0.0690298 -0.0563509 0.803 0 0 0 204 196 201 255
-0.0489263 0.0174737 0.664 0 0 0 176 170 135 255
-0.0623912 0.0341386 0.671 0 0 0 149 152 124 255
0.00260351 -0.0299404 0.742 0 0 0 94 80 57 255
0.0674947 -0.00843684 0.687 0 0 0 189 194 149 255
-0.0508456 -0.00709474 0.674 0 0 0 101 105 20 255
-0.0709228 -0.0146737 0.697 0 0 0 185 173 164 255
-0.0375018 0.0304702 0.668 0 0 0 166 168 131 255
-0.0400281 -0.0335719 0.736 0 0 0 63 72 100 255
0.0591421 0.0150754 0.661 0 0 0 156 161 159 255
0.0601193 0.0127175 0.659 0 0 0 160 165 161 255
0.050793 0.00692632 0.658 0 0 0 187 192 188 255
0.0349474 -0.00116491 0.664 0 0 0 209 207 135 255
-0.00729474 -0.00972632 0.693 0 0 0 69 54 0 255
0.0011614 0.0162596 0.662 0 0 0 135 120 102 255
0 -0.0146105 0.694 0 0 0 92 142 182 255
0.0011614 0.0150982 0.662 0 0 0 100 104 78 255
-0.0291789 -0.0133737 0.693 0 0 0 196 187 106 255
0.066807 -0.00477193 0.68 0 0 0 209 222 158 255
0.070614 -0.0579035 0.805 0 0 0 205 198 209 255
-0.0464561 0.0150982 0.662 0 0 0 184 185 180 255
0.0398456 -0.00351579 0.668 0 0 0 197 196 117 255
-0.0434 -0.0574 0.798 0 0 0 164 143 132 255
0.0315474 0.0268737 0.666 0 0 0 182 182 157 255
0.0321158 -0.00594737 0.678 0 0 0 195 185 107 255
-0.0408947 0.0233684 0.666 0 0 0 172 175 142 255
0.0368842 0.00576316 0.657 0 0 0 186 190 179 255
0.0661 0.0115965 0.661 0 0 0 190 193 192 255
-0.0198684 -0.0370877 0.755 0 0 0 192 182 174 255
-0.0244667 -0.0309053 0.734 0 0 0 86 102 119 255
-0.0574737 -0.0632211 0.819 0 0 0 178 166 172 255
-0.0175526 -0.0046807 0.667 0 0 0 181 166 76 255
-0.0149474 -0.0199298 0.71 0 0 0 143 152 149 255
-0.0720421 -0.0122105 0.696 0 0 0 181 178 127 255
-0.0648421 0.0353684 0.672 0 0 0 162 156 119 255
-0.0551895 -0.038107 0.749 0 0 0 46 71 85 255
0.0264316 -0.0690158 0.837 0 0 0 147 144 120 255
-0.0158825 -0.0635298 0.823 0 0 0 156 144 118 255
-0.0294298 0.0353158 0.671 0 0 0 132 134 95 255
-0.0185544 0.0150754 0.661 0 0 0 182 184 170 255
0.0497053 -0.0441825 0.787 0 0 0 122 135 171 255
0.0129474 -0.0297789 0.738 0 0 0 200 193 155 255
-0.0139789 0.0198035 0.664 0 0 0 164 168 144 255
-0.0203614 -0.0683561 0.829 0 0 0 195 185 193 255
0.0139158 0.0127561 0.661 0 0 0 181 188 170 255
0.0452439 -0.0122281 0.697 0 0 0 145 157 178 255
-0.0521053 -0.0651316 0.825 0 0 0 148 132 85 255
-0.0648684 -0.0267105 0.725 0 0 0 109 128 140 255
-0.0308772 -0.0185263 0.704 0 0 0 125 139 182 255
-0.0721298 -0.00591228 0.674 0 0 0 182 176 130 255
0.0429719 0.0220667 0.662 0 0 0 187 187 169 255
-0.0718088 0.0353158 0.671 0 0 0 174 174 117 255
-0.0336807 0.0139368 0.662 0 0 0 181 180 169 255
-0.0373439 -0.032193 0.734 0 0 0 85 91 127 255
-0.0672597 0.00347895 0.661 0 0 0 172 180 173 255
0.0105158 0.0233684 0.666 0 0 0 119 114 100 255
0.0080807 0.00461754 0.658 0 0 0 179 181 182 255
0.0679719 0.033986 0.668 0 0 0 184 180 135 255
-0.0726597 0.0281263 0.668 0 0 0 147 137 104 255
0.0663 -0.0299 0.741 0 0 0 217 228 255 255
-0.0128526 0.0245368 0.666 0 0 0 157 163 138 255
-0.0535526 -0.0651316 0.825 0 0 0 135 125 106 255
-0.0433614 0.0304702 0.668 0 0 0 129 135 97 255
0.0708456 0.0011614 0.662 0 0 0 201 202 179 255
0.0117018 0.0292544 0.667 0 0 0 101 115 85 255
0.0334421 -0.0136246 0.706 0 0 0 94 124 209 255
-0.0362175 -0.0543263 0.794 0 0 0 148 149 183 255
-0.0738316 0.0269544 0.668 0 0 0 127 115 37 255
0.0393211 -0.0228316 0.723 0 0 0 210 207 129 255
-0.0381526 0.00924912 0.659 0 0 0 174 183 173 255
-0.0721895 -0.0441158 0.762 0 0 0 183 177 142 255
-0.048 -0.0096 0.684 0 0 0 66 62 57 255
-0.0155737 -0.0580474 0.807 0 0 0 182 179 171 255
0.0245333 -0.0271158 0.736 0 0 0 169 175 196 255
-0.00745263 -0.0186316 0.708 0 0 0 159 167 175 255
-0.066021 0.0353684 0.672 0 0 0 164 159 122 255
0.0416263 -0.0201825 0.719 0 0 0 209 213 214 255
-0.067 0.0317368 0.67 0 0 0 159 162 129 255
0.0575439 -0.0533333 0.8 0 0 0 198 195 201 255
-0.00972632 -0.00972632 0.693 0 0 0 40 47 1 255
0.066707 -0.0581912 0.809 0 0 0 198 192 185 255
0.0411158 -0.0690158 0.837 0 0 0 191 167 79 255
0.0575965 0.0317368 0.67 0 0 0 158 157 148 255
-0.0684193 0.00347895 0.661 0 0 0 173 178 172 255
0.0599474 0.0340877 0.67 0 0 0 173 175 138 255
-0.0118246 -0.00709474 0.674 0 0 0 102 123 7 255
-0.00544561 -0.0449263 0.776 0 0 0 124 131 74 255
0.0296035 -0.041714 0.767 0 0 0 89 109 164 255
-0.0265579 -0.0752474 0.841 0 0 0 166 155 93 255
-0.0358175 -0.0185263 0.704 0 0 0 160 174 187 255
-0.0364386 -0.00470175 0.67 0 0 0 177 174 120 255
0.0188632 -0.00589474 0.672 0 0 0 81 85 86 255
0.00116491 0.0221333 0.664 0 0 0 60 86 25 255
-0.024307 -0.0614825 0.815 0 0 0 196 183 165 255
0.0484842 0.00692632 0.658 0 0 0 188 193 189 255
-0.0492105 -0.0665789 0.825 0 0 0 163 163 120 255
-0.0430597 -0.0430597 0.767 0 0 0 211 200 211 255
-0.00232281 0.0162596 0.662 0 0 0 151 151 126 255
-0.054586 0.0139368 0.662 0 0 0 175 177 163 255
0.0377263 -0.00471579 0.672 0 0 0 183 176 65 255
0.0234386 0.0316421 0.668 0 0 0 159 161 122 255
-0.0103281 -0.0722965 0.841 0 0 0 197 187 204 255
0.00577193 0.00461754 0.658 0 0 0 179 182 176 255
-0.00680702 -0.0449263 0.776 0 0 0 125 128 93 255
-0.0452263 0.00347895 0.661 0 0 0 171 181 171 255
0.0254351 0.00346842 0.659 0 0 0 178 179 183 255
0.0316105 -0.0121579 0.693 0 0 0 94 129 140 255
-0.00924912 0.00346842 0.659 0 0 0 180 187 187 255
0.0185825 0.0185825 0.662 0 0 0 137 150 116 255
0.016407 -0.00351579 0.668 0 0 0 209 206 127 255
0.0084 -0.006 0.684 0 0 0 94 95 49 255
-0.00352632 -0.00235088 0.67 0 0 0 170 163 83 255
0.0457368 -0.0498947 0.79 0 0 0 162 168 170 255
-0.0430368 -0.00116316 0.663 0 0 0 173 163 157 255
-0.0576877 -0.0562807 0.802 0 0 0 191 188 196 255
-0.00348421 0.0162596 0.662 0 0 0 150 153 138 255
-0.00348421 0.0150982 0.662 0 0 0 152 153 130 255
-0.011607 -0.0638386 0.827 0 0 0 132 135 102 255
-0.0694544 -0.00470877 0.671 0 0 0 197 187 134 255
-0.0647439 0.0057807 0.659 0 0 0 162 168 161 255
-0.0793421 0.00592105 0.675 0 0 0 132 121 0 255
0.058421 0.0268737 0.666 0 0 0 183 185 161 255
-0.042686 -0.0750684 0.839 0 0 0 167 162 177 255
0.0556632 0.00347895 0.661 0 0 0 194 199 213 255
-0.0381193 -0.0476491 0.776 0 0 0 189 183 178 255
-0.0745333 -0.0587667 0.817 0 0 0 179 176 84 255
-0.0323825 -0.0721246 0.839 0 0 0 182 170 158 255
0.00233684 0.0233684 0.666 0 0 0 33 56 0 255
0.00577193 0.00923509 0.658 0 0 0 163 150 77 255
0.00590175 -0.0708211 0.841 0 0 0 215 207 217 255
-0.0272263 -0.0337088 0.739 0 0 0 55 81 93 255
-0.0528947 0.0317368 0.67 0 0 0 137 138 106 255
0.0461754 0.0080807 0.658 0 0 0 190 194 184 255
-0.0419333 -0.0185 0.703 0 0 0 152 162 158 255
-0.0592316 0.0150982 0.662 0 0 0 166 166 148 255
0.00776842 -0.0310737 0.738 0 0 0 208 192 122 255
0.0547368 -0.0519298 0.8 0 0 0 164 169 179 255
-0.0590947 -0.0562807 0.802 0 0 0 196 192 200 255
0.00115614 0.0057807 0.659 0 0 0 162 167 167 255
0.0538246 -0.0430597 0.767 0 0 0 156 171 204 255
-0.0589123 -0.0307368 0.73 0 0 0 86 126 160 255
-0.00876842 -0.0672246 0.833 0 0 0 193 179 165 255
0.0404035 0.00461754 0.658 0 0 0 183 189 189 255
-0.0441579 -0.0750684 0.839 0 0 0 169 164 180 255
-0.0586281 -0.00957193 0.682 0 0 0 83 82 46 255
0.0253667 -0.0387175 0.761 0 0 0 202 202 154 255
-0.0395825 -0.0491368 0.778 0 0 0 191 168 198 255
-0.0571368 -0.0186316 0.708 0 0 0 66 108 199 255
0.0722491 -0.0122456 0.698 0 0 0 207 198 112 255
-0.0373439 -0.0309053 0.734 0 0 0 98 105 132 255
-0.0373439 -0.0334807 0.734 0 0 0 63 64 89 255
0.0360579 0.0197737 0.663 0 0 0 186 191 171 255
-0.0557474 0.0139368 0.662 0 0 0 162 164 150 255
-0.0509053 -0.0352421 0.744 0 0 0 71 84 114 255
0.00864211 -0.0619351 0.821 0 0 0 119 134 102 255
0.0684193 0.0127561 0.661 0 0 0 193 197 186 255
-0.0556737 -0.0475263 0.774 0 0 0 174 180 212 255
0.0554947 0.0115614 0.659 0 0 0 179 177 173 255
-0.0546737 -0.0351474 0.742 0 0 0 65 77 89 255
0.0536825 -0.0652895 0.827 0 0 0 175 141 80 255
-0.00464561 0.0162596 0.662 0 0 0 172 175 160 255
-0.031793 -0.0134509 0.697 0 0 0 191 182 83 255
-0.0375158 -0.0528 0.792 0 0 0 130 145 167 255
-0.00122105 -0.0158737 0.696 0 0 0 172 184 180 255
0.00117193 0.0269544 0.668 0 0 0 63 71 0 255
-0.0242789 0.00809298 0.659 0 0 0 172 170 157 255
0.0366561 -0.00472982 0.674 0 0 0 184 175 78 255
0.0105158 -0.00233684 0.666 0 0 0 206 203 152 255
-0.0580702 0.0150982 0.662 0 0 0 158 158 158 255
-0.0547509 0.0174737 0.664 0 0 0 153 151 136 255
-0.0432316 0.0222 0.666 0 0 0 151 154 121 255
-0.0460842 -0.0586526 0.796 0 0 0 157 135 99 255
-0.0741053 -0.0222316 0.704 0 0 0 125 131 0 255
-0.0441579 -0.0765404 0.839 0 0 0 157 165 126 255
-0.0106105 0.0353684 0.672 0 0 0 148 150 127 255
-0.0683789 0.0341895 0.672 0 0 0 146 149 105 255
-0.0228947 -0.0267105 0.725 0 0 0 201 205 194 255
-0.00467368 0.0257053 0.666 0 0 0 165 166 159 255
-0.00467368 0.0233684 0.666 0 0 0 174 172 157 255
-0.0622982 0.0317368 0.67 0 0 0 133 135 111 255
0.0643597 0.0280842 0.667 0 0 0 170 173 113 255
0.0182368 -0.0109421 0.693 0 0 0 165 168 94 255
0.0478947 -0.0147368 0.7 0 0 0 137 154 207 255
-0.0534228 -0.0635298 0.823 0 0 0 166 155 152 255
-0.0606421 -0.0649737 0.823 0 0 0 133 122 116 255
-0.0404281 -0.0678614 0.823 0 0 0 214 207 221 255
-0.072986 -0.00470877 0.671 0 0 0 150 148 119 255
-0.0303789 -0.00350526 0.666 0 0 0 192 176 81 255
0.00844912 -0.0120702 0.688 0 0 0 178 168 149 255
-0.00231228 0.00693684 0.659 0 0 0 167 166 159 255
0.0264772 -0.00722105 0.686 0 0 0 200 184 99 255
0.0280842 0.0292544 0.667 0 0 0 181 183 146 255
0.0547965 -0.00476491 0.679 0 0 0 206 203 140 255
0.00518596 -0.0285228 0.739 0 0 0 92 102 69 255
-0.0726597 0.0292982 0.668 0 0 0 143 136 96 255
-0.00777895 -0.0311158 0.739 0 0 0 71 83 49 255
0.0180772 -0.0296982 0.736 0 0 0 124 125 76 255
-0.026914 0.0245737 0.667 0 0 0 168 170 156 255
0.00680702 -0.0476491 0.776 0 0 0 168 172 136 255
-0.0127561 0.00927719 0.661 0 0 0 146 144 140 255
-0.0539088 0.0304702 0.668 0 0 0 158 153 116 255
-0.0630947 -0.00233684 0.666 0 0 0 189 180 151 255
-0.0757895 -0.00947368 0.675 0 0 0 140 128 18 255
0.0444667 0.0292544 0.667 0 0 0 185 184 159 255
0.0174211 0 0.662 0 0 0 202 212 167 255
-0.0704386 -0.0307368 0.73 0 0 0 220 213 217 255
-0.0116632 -0.0656053 0.831 0 0 0 154 146 99 255
0.0427123 0.0080807 0.658 0 0 0 186 191 175 255
0.0628403 -0.0643018 0.833 0 0 0 183 166 115 255
-0.0200421 -0.0212947 0.714 0 0 0 118 142 195 255
-0.0505263 -0.0575439 0.8 0 0 0 177 163 138 255
0.0576825 0.0341386 0.671 0 0 0 171 170 136 255
-0.0485737 -0.0735965 0.839 0 0 0 184 162 174 255
-0.0538632 -0.0294965 0.731 0 0 0 84 91 120 255
-0.0517193 0.0305614 0.67 0 0 0 154 156 128 255
0.0448684 -0.0651316 0.825 0 0 0 167 135 64 255
-0.0715333 -0.0185 0.703 0 0 0 186 181 155 255
-0.0645614 -0.0322807 0.736 0 0 0 179 186 186 255
-0.0671053 -0.0368421 0.75 0 0 0 41 67 118 255
0.0198035 0.0221333 0.664 0 0 0 177 191 186 255
-0.0300596 0.00809298 0.659 0 0 0 176 178 164 255
-0.0578614 -0.0430597 0.767 0 0 0 168 174 204 255
-0.0433614 0.0292982 0.668 0 0 0 134 134 102 255
0.065 -0.0299 0.741 0 0 0 217 228 255 255
0.0188632 0.0377263 0.672 0 0 0 147 156 126 255
0.0505263 -0.0519298 0.8 0 0 0 173 174 181 255
-0.0301509 0.00115965 0.661 0 0 0 205 198 198 255
0.0550421 -0.0327632 0.747 0 0 0 220 231 255 255
0.0592105 -0.0355263 0.75 0 0 0 228 236 255 255
-0.013 -0.0312 0.741 0 0 0 83 95 91 255
0.0718386 -0.0173404 0.706 0 0 0 221 223 211 255
-0.0444053 -0.0430597 0.767 0 0 0 201 205 222 255
0.0330526 -0.0482018 0.785 0 0 0 83 96 146 255
-0.0106246 -0.037186 0.757 0 0 0 189 181 173 255
-0.00952982 -0.0462877 0.776 0 0 0 157 154 134 255
-0.00116491 0.0221333 0.664 0 0 0 71 76 45 255
0.00132456 -0.0370877 0.755 0 0 0 190 175 71 255
-0.039607 0.0221333 0.664 0 0 0 185 183 152 255
-0.00911228 -0.0325439 0.742 0 0 0 78 97 93 255
-0.021586 -0.0445211 0.769 0 0 0 176 166 131 255
0.0242421 0.00923509 0.658 0 0 0 140 153 144 255
0.0537316 -0.0327632 0.747 0 0 0 218 229 255 255
0.0575158 -0.00838772 0.683 0 0 0 203 200 135 255
0.0702 -0.0312 0.741 0 0 0 219 233 255 255
-0.0362211 0.0268737 0.666 0 0 0 85 91 64 255
-0.0346316 0.00577193 0.658 0 0 0 170 172 158 255
-0.00815439 -0.00116491 0.664 0 0 0 207 205 137 255
0.0619439 -0.00476491 0.679 0 0 0 196 195 116 255
0.0125368 -0.0515404 0.794 0 0 0 93 96 118 255
-0.00587719 0.0329123 0.67 0 0 0 157 156 106 255
0.0508702 0.0104053 0.659 0 0 0 116 125 124 255
0.0721158 0.0221 0.663 0 0 0 113 126 117 255
-0.0613474 -0.0365474 0.744 0 0 0 66 79 123 255
-0.019714 0.0115965 0.661 0 0 0 181 186 180 255
-0.0292211 -0.0146105 0.694 0 0 0 195 190 135 255
-0.0420632 0.0233684 0.666 0 0 0 154 157 124 255
0.0716088 -0.0672246 0.833 0 0 0 187 178 163 255
-0.00231228 0.00809298 0.659 0 0 0 136 142 134 255
0.0039 -0.0299 0.741 0 0 0 84 69 47 255
-0.048814 -0.0382596 0.752 0 0 0 61 78 100 255
0.0324018 -0.0563509 0.803 0 0 0 183 169 144 255
0.0349263 -0.0187105 0.711 0 0 0 188 198 192 255
-0.0151895 0.0233684 0.666 0 0 0 160 166 144 255
0.0609825 -0.0498947 0.79 0 0 0 170 166 188 255
-0.0497982 -0.0611807 0.811 0 0 0 168 150 104 255
0.00115439 0.00923509 0.658 0 0 0 64 60 14 255
0.055 -0.0651316 0.825 0 0 0 174 141 91 255
0.0362719 -0.0652895 0.827 0 0 0 169 144 114 255
-0.0323719 0.00231228 0.659 0 0 0 182 187 185 255
-0.0609351 -0.0337088 0.739 0 0 0 46 79 114 255
0.0552 -0.0072 0.684 0 0 0 190 187 109 255
-0.00235439 -0.00470877 0.671 0 0 0 209 203 155 255
-0.0488667 -0.0321491 0.733 0 0 0 62 77 115 255
0.0712737 0.0257053 0.666 0 0 0 102 113 98 255
0.0670561 0.0057807 0.659 0 0 0 186 195 196 255
-0.0220912 -0.0524667 0.787 0 0 0 191 193 211 255
-0.0280333 -0.0752474 0.841 0 0 0 159 153 105 255
-0.0674824 -0.0523333 0.785 0 0 0 82 100 96 255
