ply
format ascii 1.0
element vertex 646
property float x
property float y
property float z
property float normal_x
property float normal_y
property float normal_z
property uchar red
property uchar green
property uchar blue
property uchar alpha
end_header
-0.0213071 -0.0019246 0.666 0.00686941 -0.755337 -0.655301 204 183 83 255
-0.0213711 -0.00440524 0.668 0.0604851 -0.733274 -0.677238 186 175 72 255
-0.021947 -0.00960702 0.686 -0.0552926 -0.912603 -0.40509 194 178 136 255
-0.021979 -0.0121663 0.687 -0.0481592 -0.920613 -0.387496 122 160 40 255
-0.022011 -0.0160074 0.688 -0.0287268 -0.942836 -0.332018 193 193 134 255
-0.0233867 -0.0305492 0.731 0.0503752 -0.896484 -0.440202 143 153 173 255
-0.0234827 -0.0333939 0.734 0.0797854 -0.901993 -0.424314 83 98 114 255
-0.0235466 -0.0348483 0.736 0.0928165 -0.911072 -0.401663 78 91 93 255
-0.0238026 -0.0366053 0.744 0.0498708 -0.959472 -0.277355 104 109 107 255
-0.0243785 -0.0417256 0.762 0.0485415 -0.839565 -0.541086 181 171 163 255
-0.0244424 -0.0432504 0.764 0.0395595 -0.835636 -0.547858 178 168 158 255
-0.0245064 -0.0447825 0.766 0.0342222 -0.839086 -0.542921 166 160 141 255
-0.0248263 -0.0511171 0.776 -0.0111368 -0.91292 -0.407986 190 190 188 255
-0.0251783 -0.0532996 0.787 -0.00229697 -0.9344 -0.356219 198 196 206 255
-0.0252423 -0.0548966 0.789 0.0100472 -0.937337 -0.34828 202 202 218 255
-0.0252423 -0.0563582 0.789 0.0286896 -0.942511 -0.33294 208 202 220 255
-0.0260101 -0.0610846 0.813 0.0115774 -0.867429 -0.497427 159 144 125 255
-0.0260101 -0.0625906 0.813 0.0117425 -0.867963 -0.49649 188 170 126 255
-0.026394 -0.0680992 0.825 0.0909985 -0.874367 -0.476656 186 178 171 255
-0.0267139 -0.0766586 0.835 0.0693746 -0.848193 -0.525125 166 156 130 255
-0.0269059 -0.0787673 0.841 0.0649347 -0.795176 -0.602892 159 153 105 255
0.0460608 0.0041994 0.659 0.0712911 -0.521246 -0.850424 195 198 204 255
0.0690427 -0.0612348 0.815 -0.135737 -0.91642 -0.376498 195 186 171 255
-0.0172325 -0.0150113 0.701 0.0733473 -0.94277 -0.325278 57 129 166 255
0.0536286 0.0201606 0.662 0.0539256 0.312329 -0.948442 189 194 190 255
0.057031 -0.0163797 0.704 0.113358 -0.860017 -0.497514 104 131 219 255
0.049434 -0.0740936 0.841 -0.0149088 -0.865953 -0.499904 201 187 135 255
-0.0700333 -0.0108461 0.684 0.0105931 -0.950317 -0.311104 185 176 148 255
-0.022744 0.0391377 0.672 -0.0347467 0.506847 -0.861336 162 153 126 255
-0.0227101 0.0365934 0.671 -0.0642992 0.501934 -0.862513 167 156 137 255
-0.0226086 0.0327176 0.668 -0.133286 0.428029 -0.893883 164 153 120 255
-0.0225748 0.0301974 0.667 -0.130261 0.326011 -0.936349 167 160 133 255
-0.022304 0.0115239 0.659 -0.0117666 0.328013 -0.9446 152 152 134 255
-0.0222702 0.00906864 0.658 -0.00306985 0.22868 -0.973497 169 168 162 255
-0.0222702 0.00663083 0.658 -0.00766112 0.0229881 -0.999706 175 173 169 255
-0.0222702 0.00541193 0.658 -0.00683098 -0.048308 -0.998809 179 182 167 255
-0.0222702 0.00419303 0.658 -0.020552 -0.243606 -0.969657 178 182 171 255
-0.022304 0.00175789 0.659 -0.0252874 -0.529193 -0.848125 203 195 198 255
-0.0225409 -0.0019246 0.666 0.0171031 -0.741844 -0.670354 196 175 75 255
0.0549378 0.0214192 0.663 0.0341528 0.293042 -0.955489 184 189 185 255
-0.0226086 -0.00440524 0.668 0.0452346 -0.703832 -0.708925 180 169 66 255
-0.0227101 -0.00691099 0.671 0.129364 -0.825277 -0.549712 76 100 0 255
-0.0232855 -0.00963503 0.688 -0.134447 -0.875882 -0.463416 188 172 130 255
-0.0232855 -0.0134585 0.688 -0.118149 -0.89186 -0.436609 143 145 90 255
-0.0232855 -0.0160074 0.688 -0.0862374 -0.922436 -0.376398 195 195 136 255
-0.0232855 -0.0172819 0.688 -0.0806253 -0.930226 -0.35802 124 137 112 255
-0.0241316 -0.0192306 0.713 0.130362 -0.91458 -0.382818 129 136 186 255
-0.0241655 -0.0205803 0.714 0.127311 -0.909988 -0.394605 178 186 181 255
-0.0242332 -0.0219642 0.716 0.0657873 -0.901286 -0.428201 198 199 164 255
-0.024267 -0.0233231 0.717 0.0503463 -0.894741 -0.443738 191 185 139 255
-0.0247409 -0.0305492 0.731 0.0133271 -0.890871 -0.454061 146 157 176 255
-0.0249778 -0.0335759 0.738 0.0534859 -0.915179 -0.399482 80 96 111 255
-0.0250116 -0.0349903 0.739 0.0613464 -0.926148 -0.372138 63 76 78 255
-0.0251808 -0.0366053 0.744 0.0345621 -0.962768 -0.26811 92 97 95 255
-0.0257901 -0.0417256 0.762 0.0459652 -0.843172 -0.535675 179 169 161 255
-0.0258578 -0.0432504 0.764 0.031415 -0.833928 -0.550978 176 166 156 255
-0.0259254 -0.0447825 0.766 0.0206502 -0.845932 -0.53289 168 162 144 255
-0.0260947 -0.0479313 0.771 -0.0136791 -0.859394 -0.511131 187 174 156 255
-0.0267039 -0.053435 0.789 0.016056 -0.939869 -0.341156 196 194 204 255
-0.0267377 -0.0549662 0.79 0.0277655 -0.94222 -0.333843 197 197 213 255
-0.0274485 -0.0609343 0.811 0.0241349 -0.909096 -0.415887 159 144 125 255
-0.0275162 -0.0640966 0.813 0.00669457 -0.859592 -0.510937 186 174 107 255
-0.02799 -0.0697963 0.827 0.0913362 -0.879519 -0.467017 186 178 188 255
-0.0760834 -0.064412 0.817 -0.0630134 -0.904351 -0.422112 179 175 71 255
0.0759847 -0.0293947 0.736 -0.0400166 -0.886526 -0.460944 222 233 255 255
-0.0608579 -0.0217802 0.71 0.0896972 -0.852589 -0.514826 114 129 179 255
0.0511759 0.0201606 0.662 0.0221623 0.305153 -0.952046 186 195 183 255
0.0735648 -0.0136932 0.7 -0.00366583 -0.835046 -0.550167 197 203 126 255
-0.0305283 -0.0625906 0.813 0.0115742 -0.841261 -0.540505 165 149 116 255
-0.0139045 0.0239836 0.666 0.0744063 0.339306 -0.937729 163 164 146 255
-0.013821 0.0128027 0.662 0.166712 0.341278 -0.92506 154 160 142 255
-0.0226763 0.0352978 0.67 -0.086945 0.498683 -0.862413 163 156 129 255
0.0339555 0.00176322 0.661 -0.0245071 -0.564669 -0.824953 190 187 152 255
0.038483 -0.00445799 0.676 -0.0296065 -0.943624 -0.329693 195 177 76 255
0.045921 0.00905485 0.657 0.0630264 -0.0128566 -0.997929 186 191 175 255
0.021612 0.00541193 0.658 0.0101358 -0.36017 -0.932832 183 189 182 255
-0.0240603 0.0405027 0.674 -0.0241604 0.491145 -0.870743 160 150 113 255
-0.0239532 0.0365934 0.671 -0.0755003 0.491131 -0.867808 168 155 119 255
-0.0239175 0.0340566 0.67 -0.116862 0.450512 -0.885089 160 152 118 255
-0.0238461 0.0327176 0.668 -0.140087 0.422506 -0.895469 161 151 118 255
-0.0238104 0.0277263 0.667 -0.123151 0.285595 -0.950405 166 158 138 255
-0.0237033 0.0214515 0.664 -0.0751878 0.440219 -0.894737 165 156 152 255
-0.0236676 0.0189629 0.663 -0.0454684 0.456476 -0.888573 151 144 128 255
-0.0236319 0.0177079 0.662 -0.0275139 0.454197 -0.890476 155 150 147 255
-0.0235962 0.0164567 0.661 -0.0233022 0.436429 -0.899437 156 151 152 255
-0.0235962 0.0152323 0.661 -0.0224676 0.429005 -0.903023 151 152 147 255
-0.0235962 0.0140078 0.661 -0.0275451 0.414549 -0.90961 151 143 132 255
-0.0235248 0.0127447 0.659 -0.0324612 0.36483 -0.930508 151 145 126 255
-0.0235248 0.0115239 0.659 -0.0313945 0.333805 -0.942119 146 141 118 255
-0.0235248 0.0103032 0.659 -0.0323379 0.285633 -0.957793 167 165 152 255
-0.0234891 0.00663083 0.658 -0.0389897 0.0469336 -0.998137 175 174 167 255
-0.0234891 0.00541193 0.658 -0.0455512 -0.065044 -0.996842 180 182 172 255
-0.0234891 0.00419303 0.658 -0.0684135 -0.229235 -0.970964 176 183 167 255
-0.0235248 0.00175789 0.659 -0.0593576 -0.524202 -0.849523 202 197 199 255
-0.0236319 0.00053958 0.662 -0.0384505 -0.72962 -0.682771 192 182 144 255
-0.0237747 -0.0019246 0.666 0.0393549 -0.725096 -0.687522 192 174 71 255
0.0537096 0.0214192 0.663 0.0358421 0.281717 -0.958828 185 191 187 255
-0.0238461 -0.00440524 0.668 0.0412881 -0.692052 -0.720666 192 176 93 255
0.0230243 -0.0150113 0.701 -0.0394437 -0.874003 -0.484316 63 89 155 255
-0.0239175 -0.00565956 0.67 0.0390761 -0.691905 -0.720931 148 152 71 255
-0.0239532 -0.00815397 0.671 0.107477 -0.811505 -0.574376 93 116 17 255
-0.0245243 -0.00962103 0.687 -0.177471 -0.843098 -0.507632 146 136 39 255
-0.02456 -0.0134585 0.688 -0.173584 -0.859745 -0.48032 142 140 111 255
-0.0246671 -0.0147972 0.691 -0.061234 -0.955808 -0.287543 215 205 154 255
-0.0246314 -0.0173321 0.69 -0.0714341 -0.948773 -0.307778 121 137 122 255
-0.0253811 -0.0204938 0.711 0.181192 -0.905955 -0.382643 174 178 179 255
-0.0255596 -0.0219642 0.716 0.123158 -0.905401 -0.406302 201 200 148 255
-0.0257024 -0.0260882 0.72 0.0216773 -0.891277 -0.452941 184 191 177 255
-0.0257738 -0.0274981 0.722 0.00998943 -0.894146 -0.447664 194 198 215 255
-0.026095 -0.0305492 0.731 -0.0275486 -0.885747 -0.46335 155 157 184 255
-0.0262021 -0.0320342 0.734 -0.00493486 -0.890335 -0.455279 91 106 126 255
-0.0262735 -0.0334849 0.736 0.0193125 -0.910399 -0.41328 79 95 110 255
-0.0270946 -0.0401553 0.759 0.0267519 -0.896713 -0.441803 188 175 168 255
-0.0273445 -0.0447825 0.766 0.0172271 -0.853878 -0.520187 181 167 154 255
-0.0281655 -0.053435 0.789 0.0201844 -0.940113 -0.340265 196 190 211 255
-0.0289509 -0.0609343 0.811 0.0318706 -0.904626 -0.425014 158 143 123 255
-0.029522 -0.0697963 0.827 0.0932776 -0.877196 -0.470984 181 178 181 255
-0.0297362 -0.0718457 0.833 0.0754422 -0.870247 -0.486805 178 172 181 255
-0.029879 -0.0737412 0.837 0.0881445 -0.846052 -0.525763 174 165 164 255
-0.0299504 -0.07858 0.839 0.0748312 -0.819691 -0.567897 153 150 140 255
-0.0215201 -0.0219029 0.714 0.0441171 -0.897669 -0.438456 178 194 168 255
-0.0229668 -0.0417256 0.762 0.0481969 -0.831403 -0.553575 179 172 156 255
0.0414275 0.0238755 0.663 -0.0437563 0.329319 -0.943204 184 187 168 255
0.0487232 0.0201606 0.662 -0.0414655 0.284031 -0.957918 185 192 181 255
-0.0713519 0.00788552 0.661 -0.088706 0.0223672 -0.995807 180 182 174 255
-0.0693338 -0.0318597 0.73 -0.0179663 -0.864199 -0.502829 207 210 234 255
0.0230205 -0.0535028 0.79 0.0592221 -0.938806 -0.339317 72 76 125 255
-0.0030109 -0.0232906 0.716 0.0101068 -0.850989 -0.525086 211 202 171 255
-0.0370658 0.0140078 0.661 -0.0252577 0.388275 -0.921197 181 180 169 255
0.0615659 -0.00576092 0.682 -0.0191784 -0.91029 -0.413527 199 196 133 255
-0.0103258 0.0405027 0.674 0.0598768 0.465439 -0.883052 157 159 117 255
-0.0252338 0.0391377 0.672 -0.0441201 0.466195 -0.883581 171 160 116 255
-0.0251962 0.0365934 0.671 -0.0628548 0.478058 -0.876076 172 160 123 255
-0.0251587 0.0352978 0.67 -0.0726452 0.473831 -0.877614 169 161 127 255
-0.0251587 0.0340566 0.67 -0.0983898 0.433217 -0.895903 170 162 128 255
-0.0250836 0.0327176 0.668 -0.125601 0.417515 -0.899948 173 162 130 255
-0.025046 0.0301974 0.667 -0.132365 0.342213 -0.930252 173 162 141 255
-0.06364 -0.0525546 0.776 -0.0678533 -0.876991 -0.475692 102 100 96 255
-0.025046 0.0289619 0.667 -0.122519 0.308048 -0.943449 180 170 144 255
-0.025046 0.0264907 0.667 -0.0969673 0.284342 -0.953806 175 165 141 255
-0.0248583 0.0177079 0.662 -0.0338245 0.463926 -0.885228 175 171 168 255
-0.0248583 0.0164816 0.662 -0.023204 0.442806 -0.896317 173 168 170 255
-0.0248207 0.0152323 0.661 -0.0246995 0.424365 -0.905154 166 167 162 255
-0.0248207 0.0140078 0.661 -0.0296766 0.41136 -0.91099 172 164 153 255
-0.0248207 0.0127834 0.661 -0.0329308 0.385314 -0.922198 171 164 146 255
-0.0247456 0.0115239 0.659 -0.0405706 0.332654 -0.942176 172 166 143 255
-0.0247456 0.00908242 0.659 -0.0562414 0.212165 -0.975614 175 173 160 255
-0.0247456 0.00664091 0.659 -0.0555834 0.0348324 -0.997846 174 173 166 255
-0.024708 0.00541193 0.658 -0.0661259 -0.091454 -0.993611 180 182 172 255
-0.024708 0.00419303 0.658 -0.073487 -0.21625 -0.973569 176 183 167 255
-0.024708 0.00297412 0.658 -0.0697352 -0.377606 -0.923336 184 189 187 255
-0.0248958 0.000540395 0.663 -0.0162606 -0.725159 -0.688389 194 184 146 255
-0.0249334 -0.000688806 0.664 0.0182724 -0.74823 -0.663187 190 180 76 255
-0.025046 -0.00316307 0.667 0.0517259 -0.692635 -0.719432 191 174 82 255
0.0217257 -0.0150113 0.701 -0.0210939 -0.872993 -0.487276 94 110 196 255
-0.0251587 -0.00565956 0.67 0.0366427 -0.682533 -0.729936 164 168 87 255
-0.025797 -0.00962103 0.687 -0.191431 -0.837924 -0.511113 89 79 0 255
-0.025797 -0.0108936 0.687 -0.193033 -0.838424 -0.50969 66 79 0 255
-0.0260223 -0.01484 0.693 -0.0638056 -0.947535 -0.313221 207 197 146 255
-0.0260223 -0.0161237 0.693 -0.0564781 -0.942708 -0.328804 191 192 131 255
-0.0260223 -0.0174075 0.693 -0.0553332 -0.943081 -0.327928 129 145 130 255
-0.026548 -0.0190688 0.707 0.193454 -0.88597 -0.421466 121 130 188 255
-0.0268109 -0.0219029 0.714 0.218073 -0.897763 -0.382709 193 192 140 255
-0.0269235 -0.0246513 0.717 0.139213 -0.911386 -0.387292 187 185 129 255
-0.0269986 -0.026052 0.719 0.014894 -0.897646 -0.440465 173 179 166 255
-0.0271113 -0.0274981 0.722 -0.00865298 -0.89497 -0.446042 185 189 206 255
-0.0273366 -0.0304238 0.728 -0.0473234 -0.878629 -0.475154 158 161 187 255
-0.0277496 -0.0349903 0.739 -0.0128183 -0.927782 -0.372904 46 71 83 255
-0.0281251 -0.0382388 0.749 -0.0122157 -0.960494 -0.278031 154 158 161 255
-0.0285757 -0.0402611 0.761 0.0327358 -0.876506 -0.480276 184 172 165 255
-0.0286133 -0.0431371 0.762 0.0388227 -0.852721 -0.520921 176 160 161 255
-0.0287635 -0.0447825 0.766 4.50825e-06 -0.85905 -0.511892 193 179 165 255
-0.029552 -0.0518417 0.787 0.0394571 -0.931526 -0.361528 194 189 193 255
-0.0296647 -0.0549662 0.79 0.0345194 -0.939999 -0.339425 193 191 215 255
-0.0297398 -0.0565725 0.792 0.0456545 -0.941264 -0.33457 194 187 212 255
-0.0304532 -0.0609343 0.811 0.0456311 -0.90955 -0.413082 158 143 123 255
-0.0307536 -0.0660868 0.819 0.0334898 -0.835655 -0.548233 193 179 165 255
-0.0307536 -0.0676039 0.819 0.0433035 -0.830789 -0.554901 197 191 184 255
-0.0315046 -0.0770258 0.839 0.0668972 -0.82567 -0.560173 186 176 168 255
-0.0315046 -0.07858 0.839 0.0695326 -0.826982 -0.557912 170 167 156 255
0.0401993 0.0238755 0.663 -0.00701722 0.346519 -0.938017 184 187 170 255
0.0328438 -0.0470459 0.78 0.106573 -0.881594 -0.45982 49 83 128 255
0.0394414 0.0390794 0.671 0.069258 0.546709 -0.834453 181 180 139 255
0.0774551 -0.0149899 0.7 -0.0118597 -0.834438 -0.550974 210 200 133 255
0.0309911 -0.0293947 0.736 0.00560013 -0.928236 -0.371949 191 198 157 255
-0.0229388 -0.0233231 0.717 0.0374869 -0.888149 -0.458024 200 194 149 255
-0.0237747 0.0252173 0.666 -0.117516 0.310066 -0.943424 163 155 135 255
0.0389711 0.0238755 0.663 0.0265782 0.360941 -0.93221 184 187 170 255
-0.00433729 -0.0232906 0.716 0.00701574 -0.860221 -0.509874 208 207 155 255
0.0132383 -0.0019246 0.666 0.0206131 -0.783125 -0.621523 206 203 152 255
0.0595547 -0.0150541 0.703 0.0689307 -0.868933 -0.490105 118 169 177 255
-0.0762499 0.00666106 0.661 -0.18395 -0.0426939 -0.982008 106 114 0 255
0.0731397 0.0127834 0.661 0.0334856 0.345056 -0.937985 186 194 187 255
-0.0265574 0.0405027 0.674 -0.0177016 0.44321 -0.896243 164 166 122 255
-0.0264786 0.0391377 0.672 -0.0217116 0.446363 -0.894588 165 166 145 255
-0.0264392 0.0365934 0.671 -0.0348949 0.462269 -0.886053 170 172 147 255
-0.0263998 0.0340566 0.67 -0.0626729 0.420805 -0.904984 161 169 118 255
-0.0262816 0.0277263 0.667 -0.0878758 0.311772 -0.946084 169 173 137 255
0.0207029 0.0364298 0.668 -0.0107822 0.468323 -0.883491 130 133 89 255
-0.0260846 0.0177079 0.662 -0.0408552 0.464242 -0.884765 172 178 155 255
-0.0260452 0.0152323 0.661 -0.0435793 0.423305 -0.904938 175 177 153 255
-0.0260452 0.0140078 0.661 -0.0439605 0.41407 -0.909183 173 177 176 255
-0.0259664 0.0127447 0.659 -0.0531775 0.355386 -0.933206 173 174 153 255
-0.0259664 0.0115239 0.659 -0.057964 0.327131 -0.9432 167 173 164 255
-0.0259664 0.0103032 0.659 -0.0657201 0.278474 -0.958192 172 175 156 255
-0.0259664 0.00908242 0.659 -0.0688969 0.20457 -0.976424 170 175 175 255
-0.025927 0.00663083 0.658 -0.0703543 0.0434732 -0.996574 171 174 166 255
-0.025927 0.00541193 0.658 -0.0682731 -0.0983621 -0.992806 181 179 166 255
-0.0259664 0.00297864 0.659 -0.0787008 -0.432872 -0.898014 184 189 187 255
-0.0259664 0.00175789 0.659 -0.0748116 -0.504192 -0.860345 205 199 203 255
-0.026124 0.000540395 0.663 0.000106709 -0.712155 -0.702022 195 184 152 255
-0.0261634 -0.000688806 0.664 0.0400661 -0.729806 -0.682479 188 181 69 255
-0.0262422 -0.0019246 0.666 0.0632028 -0.725378 -0.685443 188 180 90 255
-0.026321 -0.00564266 0.668 0.0509987 -0.6784 -0.732921 181 178 113 255
-0.026321 -0.00811751 0.668 0.036094 -0.673726 -0.738099 50 55 0 255
-0.0272273 -0.0122371 0.691 -0.126567 -0.910288 -0.394153 121 119 58 255
-0.0272273 -0.0135171 0.691 -0.128006 -0.914376 -0.384097 179 169 88 255
-0.0273455 -0.0148614 0.694 -0.0685155 -0.933575 -0.351771 196 191 136 255
-0.0273061 -0.0161237 0.693 -0.0686261 -0.933097 -0.353017 186 189 129 255
-0.0273455 -0.0174326 0.694 -0.074781 -0.924632 -0.373447 129 148 126 255
-0.0280941 -0.0218722 0.713 0.248165 -0.879075 -0.406991 184 183 138 255
-0.0283306 -0.026052 0.719 0.128513 -0.914362 -0.383963 167 181 179 255
-0.0284488 -0.0274981 0.722 0.000656872 -0.897054 -0.441921 181 186 212 255
-0.0286852 -0.0304238 0.728 -0.0646373 -0.878725 -0.472932 163 164 189 255
-0.0288822 -0.0319906 0.733 -0.0684705 -0.876118 -0.47721 101 106 129 255
-0.0289216 -0.0333939 0.734 -0.0533281 -0.868591 -0.492651 84 93 106 255
-0.0299855 -0.0416708 0.761 0.0270082 -0.863481 -0.503658 186 156 159 255
-0.0300249 -0.0431371 0.762 0.0241277 -0.857163 -0.51448 179 157 162 255
-0.0301825 -0.0447825 0.766 -0.0164642 -0.865389 -0.500831 194 179 171 255
-0.0305765 -0.0496796 0.776 0.0104354 -0.889656 -0.456512 182 175 164 255
-0.031207 -0.0565725 0.792 0.0514745 -0.940211 -0.33668 189 184 188 255
-0.0321132 -0.0627446 0.815 0.0105272 -0.844442 -0.535543 172 141 92 255
-0.0321132 -0.0642543 0.815 7.01211e-05 -0.832125 -0.554588 161 138 69 255
-0.0323496 -0.067769 0.821 0.0653713 -0.828214 -0.556587 200 191 189 255
-0.0329013 -0.0720182 0.835 0.120659 -0.862179 -0.492025 181 178 179 255
-0.0331377 -0.0787673 0.841 0.0581962 -0.818675 -0.571301 179 170 168 255
0.0615348 -0.0524346 0.796 -0.0884877 -0.86575 -0.492592 142 137 155 255
-0.0595426 -0.0217802 0.71 0.0914813 -0.847557 -0.522761 114 129 179 255
0.0673193 -0.0701338 0.831 0.0795504 -0.880696 -0.466955 179 163 119 255
0.0282642 -0.0293947 0.736 0.0159774 -0.929119 -0.369436 141 151 159 255
0.0282642 -0.0307581 0.736 0.0141377 -0.931776 -0.362759 135 140 139 255
-0.0251962 0.0378364 0.671 -0.0545266 0.480408 -0.875349 172 160 123 255
-0.0530645 0.014029 0.662 -0.0144995 0.419747 -0.907525 186 187 182 255
-0.0679855 -0.000688806 0.664 -0.0884322 -0.719805 -0.688521 184 179 167 255
0.00580068 0.0164816 0.662 0.0136972 0.402981 -0.915106 129 131 80 255
-0.0573746 -0.0732126 0.831 -0.0459951 -0.862689 -0.503638 167 144 131 255
-0.0277235 0.0403825 0.672 -0.00605603 0.434835 -0.90049 141 143 99 255
-0.0276823 0.0365934 0.671 -0.00614558 0.443091 -0.896456 146 148 122 255
-0.0275585 0.0302427 0.668 -0.0781355 0.381741 -0.920961 145 145 116 255
-0.027476 0.0239836 0.666 -0.0333681 0.358932 -0.932767 157 162 144 255
-0.027476 0.0227498 0.666 -0.0278105 0.41376 -0.909961 141 150 122 255
-0.0273935 0.0214515 0.664 -0.0356282 0.462138 -0.886092 147 151 127 255
-0.0273935 0.0202215 0.664 -0.0372221 0.465608 -0.884208 151 156 129 255
-0.0273522 0.0189629 0.663 -0.0389849 0.461695 -0.886181 154 160 153 255
-0.027311 0.0177079 0.662 -0.043293 0.467841 -0.882752 154 160 138 255
-0.0272697 0.0152323 0.661 -0.0582762 0.420905 -0.905231 163 165 142 255
-0.0272697 0.0140078 0.661 -0.0563282 0.410923 -0.909928 155 160 158 255
-0.0271872 0.0127447 0.659 -0.0698128 0.354437 -0.93247 147 148 127 255
-0.0271872 0.0115239 0.659 -0.0735153 0.326122 -0.942465 143 149 141 255
-0.0271459 0.00784973 0.658 -0.0713937 0.108513 -0.991528 170 176 169 255
-0.0271459 0.00663083 0.658 -0.0687821 0.0379933 -0.996908 171 174 166 255
-0.0271459 0.00541193 0.658 -0.0608132 -0.108273 -0.992259 179 176 164 255
-0.0273522 0.000540395 0.663 0.00844214 -0.68753 -0.726106 200 189 156 255
-0.0273935 -0.000688806 0.664 0.0432011 -0.715007 -0.697781 193 186 75 255
-0.0285899 -0.0122725 0.693 -0.100471 -0.919373 -0.380341 187 186 125 255
-0.0285899 -0.0135563 0.693 -0.0971994 -0.919433 -0.381045 196 187 106 255
-0.0286311 -0.0148614 0.694 -0.10793 -0.912466 -0.39466 195 190 135 255
-0.0286311 -0.016147 0.694 -0.122769 -0.902775 -0.41222 188 190 130 255
-0.0296625 -0.026052 0.719 0.171247 -0.921905 -0.347514 164 178 175 255
-0.0299926 -0.0290353 0.727 -0.0703724 -0.888437 -0.453571 174 177 201 255
-0.0302401 -0.0319906 0.733 -0.0702312 -0.861508 -0.502864 97 103 126 255
-0.0302813 -0.0333939 0.734 -0.0556813 -0.859645 -0.507848 84 93 106 255
-0.0302813 -0.0347536 0.734 -0.0483545 -0.85255 -0.520404 40 68 79 255
-0.0309414 -0.0382898 0.75 -0.022398 -0.955735 -0.293374 120 124 127 255
-0.0313952 -0.0416708 0.761 0.0148207 -0.855545 -0.517516 188 158 162 255
-0.0316015 -0.0447825 0.766 -0.023344 -0.869723 -0.492988 193 178 170 255
-0.0176587 0.033955 0.668 0.0770248 0.463666 -0.882656 146 149 86 255
-0.0318078 -0.0465031 0.771 -0.0463311 -0.869914 -0.491022 192 177 157 255
-0.0318903 -0.0480556 0.773 -0.0411105 -0.857363 -0.513069 179 166 145 255
-0.0320141 -0.0496796 0.776 0.0143834 -0.888699 -0.458266 176 169 158 255
-0.0325504 -0.053435 0.789 0.0603869 -0.932732 -0.355479 196 192 214 255
-0.0326741 -0.0551053 0.792 0.0608143 -0.943563 -0.325562 172 171 190 255
-0.0337055 -0.064412 0.817 0.0257164 -0.819065 -0.573124 140 118 48 255
-0.033788 -0.0660868 0.819 0.0379728 -0.806775 -0.589637 191 166 138 255
-0.0338705 -0.067769 0.821 0.0569342 -0.814176 -0.577821 201 192 190 255
-0.0342006 -0.0715007 0.829 0.139889 -0.888525 -0.436983 186 183 184 255
-0.0346957 -0.0803252 0.841 0.0535363 -0.823364 -0.564983 148 148 94 255
0.0529184 -0.0220563 0.719 -0.0129455 -0.93677 -0.349706 215 210 130 255
0.0344692 0.0390794 0.671 0.0526934 0.545724 -0.836307 182 180 147 255
0.00390934 -0.0437598 0.773 -0.0474224 -0.868195 -0.493953 188 180 133 255
0.00390934 -0.0451918 0.773 -0.0649232 -0.855415 -0.513858 162 164 100 255
0.0657799 -0.0701338 0.831 0.0774038 -0.879463 -0.469631 189 162 103 255
0.0399568 0.0041994 0.659 0.0417876 -0.479184 -0.876719 194 196 200 255
-0.0411592 -0.0306745 0.734 0.0350912 -0.805605 -0.591413 150 154 171 255
0.0647043 -0.0737412 0.837 0.0594104 -0.859321 -0.507974 170 104 58 255
0.0162011 -0.00580316 0.687 0.214639 -0.765356 -0.606762 61 68 11 255
-0.0289684 0.0403825 0.672 0.0067996 0.412178 -0.911078 129 136 95 255
-0.0289253 0.0365934 0.671 0.0107885 0.419594 -0.907648 131 135 95 255
-0.0288822 0.0352978 0.67 -0.006367 0.422989 -0.906112 130 132 91 255
-0.000344107 -0.0109095 0.688 -0.125837 -0.853037 -0.506452 97 98 89 255
-0.0288822 0.0328155 0.67 -0.0307105 0.395209 -0.918078 137 139 100 255
-0.0193466 -0.0547575 0.787 0.0210427 -0.934743 -0.354701 197 199 216 255
-0.0287529 0.0289619 0.667 -0.0317584 0.347088 -0.937295 134 138 100 255
-0.0287529 0.0277263 0.667 -0.0194227 0.324964 -0.945527 140 147 122 255
-0.0286235 0.0202215 0.664 -0.0193647 0.463916 -0.885668 142 148 139 255
-0.0285804 0.0189629 0.663 -0.0290545 0.464557 -0.885066 145 150 144 255
-0.0285373 0.0164816 0.662 -0.0472814 0.428949 -0.90209 145 153 132 255
-0.0284942 0.0140078 0.661 -0.0552641 0.410897 -0.910005 145 155 151 255
-0.028408 0.0115239 0.659 -0.0649617 0.323915 -0.943853 133 139 130 255
-0.028408 0.0103032 0.659 -0.0694937 0.27293 -0.959521 167 174 156 255
-0.028408 0.00908242 0.659 -0.0697066 0.19612 -0.978099 176 178 164 255
-0.0283649 0.00419303 0.658 -0.0447742 -0.192125 -0.980348 175 177 163 255
-0.028408 0.00175789 0.659 -0.0385672 -0.50805 -0.860463 209 202 202 255
-0.0285804 0.000540395 0.663 -0.00290223 -0.680271 -0.732955 204 189 153 255
-0.0297874 -0.00967704 0.691 -0.109866 -0.90107 -0.419527 219 204 152 255
-0.0303478 -0.020292 0.704 0.17624 -0.86184 -0.475575 147 157 154 255
-0.0304341 -0.0216575 0.706 0.214537 -0.858023 -0.466659 178 180 138 255
-0.0313824 -0.0290752 0.728 -0.10423 -0.876991 -0.469066 170 177 206 255
-0.0315118 -0.0305492 0.731 -0.0886227 -0.860061 -0.502435 159 162 186 255
-0.031598 -0.0319906 0.733 -0.0745939 -0.843357 -0.532151 99 106 133 255
-0.0316411 -0.0333939 0.734 -0.0631645 -0.847446 -0.52711 87 94 122 255
-0.0289253 0.0390794 0.671 0.00858292 0.424215 -0.905521 132 137 94 255
-0.032417 -0.0369989 0.752 -0.0242757 -0.94145 -0.336277 51 68 76 255
-0.0289253 0.0378364 0.671 0.0164336 0.427271 -0.903974 132 134 95 255
-0.032417 -0.0383919 0.752 -0.0216829 -0.939244 -0.342566 117 113 121 255
-0.0327188 -0.0401553 0.759 0.00200094 -0.882122 -0.471017 162 148 152 255
-0.0329343 -0.0418351 0.764 -0.0153833 -0.864484 -0.502425 189 162 160 255
-0.0329343 -0.0432504 0.764 -0.0228668 -0.869097 -0.494113 179 161 144 255
-0.034012 -0.053435 0.789 0.0703052 -0.928194 -0.365395 190 194 211 255
-0.0341413 -0.0551053 0.792 0.0660211 -0.944486 -0.32185 152 164 187 255
-0.035219 -0.0613851 0.817 0.0380986 -0.82738 -0.560349 162 145 124 255
-0.035219 -0.0628985 0.817 0.0426285 -0.814486 -0.578615 154 117 75 255
-0.035219 -0.064412 0.817 0.040643 -0.811075 -0.583529 143 105 45 255
-0.0353915 -0.0692899 0.821 0.0640901 -0.799888 -0.596717 187 188 197 255
-0.0355639 -0.0711557 0.825 0.122258 -0.836464 -0.53421 186 182 190 255
-0.0356501 -0.0728602 0.827 0.125402 -0.892614 -0.43303 181 170 194 255
0.0409878 -0.0220869 0.72 0.0350014 -0.912776 -0.406958 204 205 145 255
-0.0300461 -0.0162168 0.697 -0.0778501 -0.896194 -0.43678 198 197 118 255
0.000973691 -0.0260882 0.72 0.0330647 -0.875654 -0.481806 215 219 168 255
-0.0568222 -0.0679341 0.823 -0.0431235 -0.884182 -0.465148 134 130 113 255
-0.0255596 -0.0232906 0.716 0.131676 -0.907372 -0.399172 195 188 145 255
-0.0264392 0.0378364 0.671 -0.0279579 0.462945 -0.885946 171 164 135 255
-0.0260846 0.0164816 0.662 -0.0419041 0.441707 -0.89618 172 178 153 255
0.0350736 0.00297864 0.659 0.00217526 -0.448114 -0.893974 196 194 179 255
0.0346747 -0.0044514 0.675 0.0277841 -0.951837 -0.305342 194 176 77 255
-0.0076544 0.00297864 0.659 0.0445219 -0.303683 -0.951732 190 202 198 255
-0.0302133 0.0403825 0.672 0.0267696 0.402578 -0.914994 151 158 117 255
-0.0338101 -0.0369989 0.752 -0.0064406 -0.947003 -0.321161 50 67 75 255
-0.0301683 0.0390794 0.671 0.0189324 0.405809 -0.913762 155 160 117 255
-0.0301234 0.0340566 0.67 0.00244012 0.402838 -0.915268 159 164 117 255
-0.0300334 0.0314801 0.668 0.0221614 0.408755 -0.912375 162 165 132 255
-0.0299885 0.0277263 0.667 0.0208764 0.334136 -0.942294 163 169 144 255
-0.0298536 0.0214515 0.664 0.0177439 0.455326 -0.890148 160 167 153 255
-0.0298536 0.0202215 0.664 0.0049706 0.454863 -0.890547 161 167 158 255
-0.0297637 0.0177079 0.662 -0.0313175 0.448337 -0.893316 164 168 153 255
-0.0297187 0.0140078 0.661 -0.0532949 0.405126 -0.912706 159 169 165 255
-0.0296288 0.0115239 0.659 -0.0475309 0.3266 -0.943967 159 165 156 255
-0.0297187 0.00176322 0.661 0.00483235 -0.60435 -0.796704 205 198 198 255
-0.0298086 0.000540395 0.663 0.00558486 -0.686959 -0.726675 202 187 151 255
-0.0298536 -0.00191882 0.664 0.00942884 -0.713948 -0.700135 181 161 15 255
-0.0299435 -0.00315832 0.666 -0.00981017 -0.723026 -0.690752 192 176 81 255
-0.0299435 -0.00439205 0.666 -0.0052378 -0.70218 -0.71198 206 195 108 255
-0.0299435 -0.00562577 0.666 -0.0155087 -0.706861 -0.707182 199 190 93 255
-0.0313373 -0.0123434 0.697 0.00103588 -0.902578 -0.430526 175 164 93 255
-0.0313373 -0.0136345 0.697 -0.00237121 -0.89646 -0.443119 191 182 83 255
-0.031652 -0.020292 0.704 0.156212 -0.861874 -0.482464 144 153 150 255
-0.0325962 -0.0262694 0.725 -0.0277031 -0.909177 -0.415487 169 191 195 255
-0.0327311 -0.0290752 0.728 -0.101159 -0.877171 -0.469402 168 174 204 255
-0.0328659 -0.0305492 0.731 -0.078271 -0.851522 -0.518444 159 162 186 255
-0.0329559 -0.0319906 0.733 -0.0693649 -0.833538 -0.54809 101 108 136 255
-0.0330008 -0.0333939 0.734 -0.0622836 -0.833859 -0.548453 86 93 120 255
-0.0337202 -0.0355112 0.75 0.0149558 -0.958212 -0.285666 44 59 79 255
-0.0301683 0.0378364 0.671 0.0258567 0.410413 -0.911533 158 160 121 255
-0.0338101 -0.0383919 0.752 -0.0109714 -0.940295 -0.340183 113 110 118 255
-0.0341248 -0.0401553 0.759 -0.0159638 -0.880547 -0.47369 160 145 150 255
-0.0348892 -0.0496796 0.776 -0.00612115 -0.861022 -0.508531 179 174 165 255
-0.035069 -0.0513806 0.78 0.0865075 -0.919171 -0.384242 193 194 200 255
-0.0356085 -0.0551053 0.792 0.072884 -0.942578 -0.325935 132 144 167 255
-0.0356984 -0.0567153 0.794 0.0742471 -0.942642 -0.325443 148 149 183 255
-0.0367325 -0.0613851 0.817 0.038382 -0.814203 -0.57931 161 144 122 255
-0.0367325 -0.0628985 0.817 0.0264445 -0.800381 -0.598908 148 112 69 255
-0.0367325 -0.064412 0.817 0.0277174 -0.796603 -0.603868 139 101 41 255
-0.0369124 -0.067769 0.821 0.0538321 -0.791309 -0.609042 204 192 196 255
-0.0369124 -0.0692899 0.821 0.0496105 -0.788621 -0.612875 201 202 211 255
0.0573943 -0.0031441 0.663 -0.00836508 -0.692084 -0.721769 209 206 141 255
-0.0371821 -0.0728602 0.827 0.12077 -0.890982 -0.437683 178 167 192 255
-0.0376317 -0.0752917 0.837 0.0770014 -0.867817 -0.490881 182 169 194 255
-0.0377216 -0.07858 0.839 0.0629363 -0.858335 -0.509214 174 166 162 255
-0.0377216 -0.0801342 0.839 0.0538673 -0.845416 -0.531385 145 145 90 255
0.0243901 -0.0721907 0.837 -0.0375831 -0.776132 -0.62945 152 141 111 255
-0.0155816 -0.0645697 0.819 0.124298 -0.908351 -0.39931 192 186 181 255
-0.0374679 -0.0147972 0.691 0.123735 -0.861362 -0.492693 199 186 167 255
-0.00038662 -0.0451918 0.773 -0.0288688 -0.889016 -0.456964 147 143 85 255
0.0144707 -0.0263781 0.728 0.0572022 -0.929954 -0.363199 176 185 209 255
0.0582225 -0.0703026 0.833 0.0169292 -0.88406 -0.467067 195 159 98 255
-0.0275585 0.0314801 0.668 -0.0706079 0.39482 -0.916041 148 150 127 255
-0.027476 0.0252173 0.666 -0.0425469 0.331485 -0.942501 170 168 139 255
-0.00339357 -0.0606338 0.807 0.0437629 -0.955198 -0.292716 186 180 161 255
-0.0268731 -0.0581862 0.794 0.0164433 -0.956569 -0.291042 162 154 152 255
0.0432021 -0.0740936 0.841 0.0546261 -0.852718 -0.519508 182 165 116 255
0.0334243 -0.0044514 0.675 0.0537633 -0.948638 -0.311761 191 181 89 255
-0.0314582 0.0403825 0.672 0.0301363 0.389762 -0.920422 178 170 137 255
-0.0314114 0.0378364 0.671 0.0212002 0.408236 -0.91263 173 173 146 255
-0.0313645 0.0352978 0.67 0.0131135 0.401066 -0.915955 176 171 146 255
-0.0313645 0.0340566 0.67 0.0131391 0.40362 -0.914832 181 172 139 255
-0.0311773 0.0239836 0.666 0.0709218 0.368639 -0.926863 171 177 169 255
-0.0311773 0.0227498 0.666 0.0662609 0.399389 -0.914384 177 177 164 255
-0.0310837 0.0202215 0.664 0.0282391 0.441953 -0.896594 179 184 168 255
-0.0310369 0.0189629 0.663 0.00819002 0.429945 -0.902818 182 183 162 255
-0.0309432 0.0140078 0.661 -0.0567039 0.399543 -0.914959 179 182 163 255
-0.0309432 0.0127834 0.661 -0.0557361 0.370908 -0.926996 177 179 165 255
-0.0308496 0.00908242 0.659 -0.0466289 0.201832 -0.978309 184 185 169 255
-0.0308496 0.00542015 0.659 -0.0199351 -0.114288 -0.993248 176 175 169 255
-0.0308496 0.0041994 0.659 -0.00938827 -0.300427 -0.953759 176 178 166 255
-0.0308496 0.00175789 0.659 0.009313 -0.499611 -0.8662 203 199 198 255
-0.0310369 0.000540395 0.663 0.0125125 -0.687113 -0.726443 193 177 137 255
-0.0310837 -0.00191882 0.664 -0.0211727 -0.728707 -0.684498 186 160 28 255
-0.0312241 -0.00439864 0.667 -0.0734613 -0.706982 -0.703406 205 189 101 255
-0.0313645 -0.00814182 0.67 -0.113076 -0.758777 -0.641461 115 162 110 255
-0.032488 -0.0110046 0.694 0.0137644 -0.909864 -0.414679 109 120 75 255
-0.0323476 -0.0122371 0.691 -0.038813 -0.910429 -0.41184 117 105 9 255
-0.0329562 -0.020292 0.704 0.121175 -0.864875 -0.487143 140 151 139 255
-0.0329562 -0.0229002 0.704 0.129648 -0.862715 -0.488788 196 194 181 255
-0.0330498 -0.0242731 0.706 0.18319 -0.867244 -0.462957 190 196 189 255
-0.0340797 -0.0263781 0.728 -0.0991972 -0.878784 -0.466796 179 196 206 255
-0.0342201 -0.0305492 0.731 -0.0728346 -0.849589 -0.522392 158 163 184 255
-0.0351096 -0.0355112 0.75 0.0307135 -0.962178 -0.270684 55 63 85 255
-0.0352968 -0.0370973 0.754 -0.0144832 -0.926097 -0.377008 53 66 73 255
-0.0352968 -0.038494 0.754 -0.0114266 -0.919368 -0.393233 89 94 92 255
-0.0356245 -0.0402611 0.761 -0.036546 -0.87445 -0.483737 144 137 164 255
-0.0359054 -0.044841 0.767 -0.0392059 -0.87508 -0.482388 184 176 174 255
-0.0360926 -0.0465031 0.771 -0.0383039 -0.871996 -0.488012 187 178 165 255
-0.0362331 -0.0481178 0.774 -0.0308289 -0.835464 -0.548679 180 178 172 255
-0.0363267 -0.0496796 0.776 -0.0218559 -0.846865 -0.531359 183 177 172 255
-0.0364203 -0.0512489 0.778 0.0461488 -0.892616 -0.44845 198 188 196 255
-0.0370757 -0.0551053 0.792 0.0716599 -0.941727 -0.328656 130 145 167 255
-0.0371693 -0.0567153 0.794 0.0708257 -0.941678 -0.328977 153 159 180 255
-0.038246 -0.0613851 0.817 0.0233026 -0.796439 -0.60427 161 145 118 255
-0.0383396 -0.0676039 0.819 0.0402231 -0.79962 -0.599158 206 187 178 255
-0.0384333 -0.0692899 0.821 0.0379593 -0.785977 -0.617089 203 204 215 255
-0.0387141 -0.0728602 0.827 0.10312 -0.88857 -0.447001 170 172 199 255
-0.0391823 -0.0752917 0.837 0.0708982 -0.86655 -0.494029 182 171 195 255
-0.0392759 -0.07858 0.839 0.0651044 -0.862021 -0.502675 168 166 166 255
0.0369864 -0.0220869 0.72 0.0923508 -0.910783 -0.402425 216 217 194 255
0.0362944 0.00297864 0.659 0.0278931 -0.461388 -0.88676 209 204 188 255
-0.0191745 -0.0528255 0.78 0.0678644 -0.914122 -0.399719 186 180 189 255
0.0718725 -0.0369005 0.75 -0.0426817 -0.893568 -0.446895 217 229 254 255
-0.032703 0.0403825 0.672 0.028063 0.380864 -0.924205 188 179 146 255
-0.0326057 0.0340566 0.67 0.0270202 0.409001 -0.912134 183 175 141 255
-0.0324597 0.0277263 0.667 0.0870522 0.354207 -0.931107 186 187 166 255
-0.0323137 0.0214515 0.664 0.0578374 0.418292 -0.906469 182 186 161 255
-0.0323137 0.0202215 0.664 0.0381138 0.428371 -0.902799 183 188 173 255
-0.0321677 0.0140078 0.661 -0.0645588 0.399049 -0.914654 179 182 163 255
-0.0321677 0.0127834 0.661 -0.0623099 0.377829 -0.923776 179 182 167 255
-0.0320704 0.0115239 0.659 -0.0581425 0.331667 -0.941603 179 184 168 255
-0.0320704 0.00908242 0.659 -0.0550203 0.211192 -0.975895 181 181 165 255
-0.0320704 0.00786166 0.659 -0.0404416 0.13105 -0.990551 173 171 158 255
-0.0320704 0.00542015 0.659 -0.0152541 -0.105911 -0.994259 179 177 171 255
-0.0320704 0.0041994 0.659 -0.00653955 -0.285353 -0.9584 176 178 166 255
-0.0320704 0.00297864 0.659 0.002651 -0.404814 -0.914395 182 187 185 255
-0.0320704 0.00175789 0.659 0.0173603 -0.483028 -0.875433 201 197 196 255
-0.0322164 0.00053958 0.662 0.0363632 -0.660287 -0.750133 186 170 130 255
-0.0323137 -0.000688806 0.664 -0.01944 -0.723044 -0.690529 177 159 47 255
-0.0323137 -0.00191882 0.664 -0.0330282 -0.731409 -0.681138 180 154 22 255
-0.0326544 -0.00815397 0.671 -0.147265 -0.764736 -0.627289 0 43 0 255
-0.033433 -0.0108936 0.687 -0.0104541 -0.891019 -0.453845 45 56 11 255
-0.0336277 -0.0122371 0.691 0.0170818 -0.898419 -0.438808 90 78 0 255
-0.033725 -0.0135563 0.693 0.0266986 -0.911799 -0.409767 141 133 40 255
-0.0341143 -0.0163099 0.701 0.0777146 -0.83823 -0.53975 192 186 122 255
-0.0342603 -0.020292 0.704 0.117334 -0.854237 -0.506471 145 156 143 255
-0.0343577 -0.0242731 0.706 0.0984809 -0.873486 -0.476785 192 198 192 255
-0.0355743 -0.0278409 0.731 -0.0633209 -0.855123 -0.514543 179 189 213 255
-0.0355743 -0.029195 0.731 -0.0563255 -0.849793 -0.524098 165 172 200 255
-0.0366936 -0.0370973 0.754 0.00563125 -0.930799 -0.365489 50 62 69 255
-0.0366936 -0.038494 0.754 -0.00553042 -0.925093 -0.3797 81 85 84 255
-0.0370343 -0.0430805 0.761 -0.0511036 -0.873611 -0.483934 195 183 173 255
-0.0377642 -0.0496796 0.776 -0.0362961 -0.834973 -0.549092 189 183 178 255
-0.0378616 -0.0512489 0.778 0.0252914 -0.876426 -0.480873 200 189 197 255
-0.0378616 -0.0526901 0.778 0.0334794 -0.883973 -0.466338 166 167 189 255
-0.0379589 -0.0542704 0.78 0.0941076 -0.904128 -0.41677 116 131 153 255
-0.0380076 -0.0557867 0.781 0.107582 -0.9094 -0.401768 146 152 173 255
-0.0386402 -0.0581862 0.794 0.0692101 -0.9418 -0.328971 158 156 152 255
-0.0397595 -0.0613851 0.817 0.0101025 -0.797109 -0.603751 160 144 117 255
-0.0397595 -0.0628985 0.817 0.00875167 -0.797798 -0.602862 147 113 74 255
-0.0397595 -0.064412 0.817 0.0050815 -0.801535 -0.597927 139 98 60 255
-0.0398568 -0.0676039 0.819 0.0224083 -0.793595 -0.608034 208 189 179 255
0.0219404 -0.00316781 0.668 0.0177394 -0.810463 -0.585521 187 181 76 255
-0.0400515 -0.0709832 0.823 0.00885052 -0.788275 -0.61526 214 207 221 255
-0.0402462 -0.0728602 0.827 0.0537245 -0.886331 -0.459924 180 183 209 255
-0.0407328 -0.0752917 0.837 0.0641587 -0.869592 -0.489585 190 179 203 255
-0.0408301 -0.07858 0.839 0.0585986 -0.856379 -0.513011 167 164 165 255
0.0197385 -0.0721907 0.837 -0.0383466 -0.805628 -0.591179 167 154 106 255
0.0338528 0.00297864 0.659 -0.0293561 -0.43447 -0.900208 193 191 176 255
0.00959432 0.0352978 0.67 -0.178889 0.38595 -0.905009 162 161 123 255
-0.0629207 -0.0679341 0.823 0.0152739 -0.890515 -0.454697 131 119 98 255
-0.00488854 -0.0606338 0.807 0.0288837 -0.957708 -0.28629 198 186 174 255
-0.028344 -0.0581862 0.794 0.0402068 -0.957407 -0.285929 164 152 158 255
0.0305082 -0.0122902 0.694 -0.0746207 -0.908369 -0.411457 72 138 150 255
0.06072 -0.0680992 0.825 0.0444065 -0.881827 -0.469477 174 141 91 255
-0.0335438 0.0214515 0.664 0.0647488 0.404741 -0.912136 158 177 173 255
0.000895254 0.0164816 0.662 -0.0756546 0.401952 -0.91253 132 140 117 255
0.0792622 0.0189057 0.661 -0.115275 0.351297 -0.92914 198 205 205 255
0.0792622 0.0176812 0.661 -0.144108 0.337774 -0.93013 206 200 152 255
-0.0161384 -0.020465 0.71 -0.0418153 -0.896942 -0.440167 119 143 137 255
-0.0338974 0.0390794 0.671 0.0159857 0.380574 -0.924612 172 175 130 255
-0.0338974 0.0378364 0.671 0.0227829 0.39832 -0.916964 148 176 87 255
-0.0338469 0.0352978 0.67 0.0226138 0.404809 -0.914122 168 171 70 255
-0.0336953 0.0301974 0.667 0.0879159 0.387968 -0.91747 165 181 85 255
-0.0336448 0.0276847 0.666 0.10422 0.345621 -0.932568 175 182 112 255
-0.0335438 0.0202215 0.664 0.045277 0.415837 -0.908312 180 188 142 255
-0.0334428 0.0164816 0.662 -0.0303311 0.379847 -0.924552 180 182 172 255
0.0653561 -0.00576092 0.682 -0.024762 -0.904469 -0.42582 209 208 129 255
-0.0333922 0.0140078 0.661 -0.0602301 0.399392 -0.9148 179 182 167 255
-0.0333922 0.0127834 0.661 -0.0585177 0.382089 -0.922271 178 180 170 255
-0.0333922 0.0115589 0.661 -0.0511736 0.346801 -0.936542 179 180 173 255
-0.0332912 0.00908242 0.659 -0.0484636 0.21843 -0.974649 179 182 165 255
0.0757031 0.0029922 0.662 0.109238 -0.633011 -0.766397 214 219 220 255
-0.0332912 0.00542015 0.659 -0.0134189 -0.103035 -0.994587 174 180 171 255
-0.0332912 0.0041994 0.659 -0.0040106 -0.265407 -0.964128 174 179 173 255
-0.0332912 0.00175789 0.659 0.0212399 -0.463543 -0.88582 198 196 195 255
-0.0334933 -0.000687769 0.663 -0.010146 -0.720873 -0.692993 170 158 117 255
-0.0335438 -0.00191882 0.664 -0.0755877 -0.762418 -0.642654 169 157 77 255
-0.0336953 -0.00316307 0.667 -0.135919 -0.735695 -0.663535 176 165 80 255
-0.0338974 -0.00691099 0.671 -0.172528 -0.769045 -0.615471 50 50 9 255
-0.0347057 -0.0108936 0.687 0.0343941 -0.867359 -0.496493 65 68 53 255
-0.0349078 -0.0135171 0.691 0.0418415 -0.895031 -0.444036 145 137 90 255
-0.0350088 -0.01484 0.693 0.0755748 -0.900028 -0.429229 190 183 144 255
-0.0356655 -0.0216575 0.706 0.0630383 -0.872982 -0.483662 149 159 238 255
-0.0356655 -0.0229653 0.706 0.0604652 -0.874985 -0.480359 195 190 203 255
-0.0357161 -0.0243075 0.707 0.0692475 -0.876645 -0.476129 196 201 199 255
-0.0370295 -0.0279171 0.733 -0.0368203 -0.812828 -0.581339 182 188 218 255
-0.03708 -0.0306745 0.734 -0.0202987 -0.801233 -0.598008 156 159 181 255
-0.03708 -0.0333939 0.734 -0.0137231 -0.795734 -0.605491 85 91 127 255
-0.03708 -0.0347536 0.734 -0.0113671 -0.781117 -0.624281 63 64 89 255
-0.0380904 -0.0370973 0.754 0.0230147 -0.943456 -0.330697 50 59 74 255
-0.065651 -0.00823903 0.678 0.0586428 -0.915671 -0.397628 45 55 90 255
-0.0381409 -0.0385451 0.755 -0.00565299 -0.928279 -0.371842 64 70 75 255
-0.038343 -0.0401553 0.759 -0.0604752 -0.888885 -0.454122 105 106 101 255
-0.038444 -0.0416708 0.761 -0.0807959 -0.877447 -0.47282 176 176 174 255
-0.0384945 -0.0431371 0.762 -0.0848802 -0.874094 -0.478284 195 185 177 255
-0.0387471 -0.044841 0.767 -0.0884751 -0.868557 -0.487628 192 177 168 255
-0.0392018 -0.0496796 0.776 -0.0362473 -0.833662 -0.551084 203 193 228 255
-0.0393028 -0.0526901 0.778 0.0112353 -0.869244 -0.494255 143 144 193 255
-0.0394544 -0.0557867 0.781 0.079445 -0.909969 -0.406996 150 155 167 255
-0.0394544 -0.0572335 0.781 0.0755936 -0.912924 -0.401069 161 155 150 255
-0.0403132 -0.0599575 0.798 0.0448787 -0.952037 -0.302674 161 143 117 255
-0.041273 -0.064412 0.817 -0.0097294 -0.797154 -0.603698 142 99 66 255
-0.041374 -0.0660868 0.819 -0.00492293 -0.785383 -0.61899 185 142 100 255
-0.0414751 -0.0692899 0.821 -0.0309102 -0.767617 -0.640163 222 207 187 255
-0.0422834 -0.0768422 0.837 0.0477381 -0.868034 -0.494205 189 172 191 255
-0.0423844 -0.07858 0.839 0.0505603 -0.857735 -0.511599 167 162 177 255
-0.0716133 -0.0398908 0.754 -0.0207822 -0.936817 -0.349203 0 49 42 255
0.00701643 0.0152323 0.661 0.0218078 0.429781 -0.90267 88 97 67 255
-0.0438683 -0.0147972 0.691 0.0750995 -0.833544 -0.547325 141 143 160 255
0.0541135 -0.0136932 0.7 0.0801457 -0.806809 -0.585351 54 110 228 255
0.0387843 -0.0371465 0.755 -0.0240395 -0.81748 -0.575455 115 134 112 255
0.0771618 0.0251415 0.664 -0.0256776 0.366462 -0.930079 98 106 96 255
-0.0105048 -0.0499357 0.78 0.116792 -0.871998 -0.475373 171 161 151 255
0.0289696 0.0041994 0.659 -0.0645866 -0.431291 -0.899898 178 179 183 255
-0.000331103 0.0164816 0.662 -0.0971802 0.407847 -0.907864 142 151 127 255
0.0780377 0.0176812 0.661 -0.144782 0.32543 -0.934416 136 131 83 255
-0.0351928 0.0403825 0.672 0.0143132 0.367592 -0.929877 164 155 101 255
-0.0351404 0.0378364 0.671 0.0118469 0.401521 -0.915773 43 71 0 255
-0.0351404 0.0365934 0.671 0.0132417 0.408211 -0.912792 54 79 10 255
-0.0350881 0.0352978 0.67 0.0229469 0.416013 -0.909069 81 83 0 255
-0.0350881 0.0328155 0.67 0.0477828 0.44265 -0.89542 65 73 0 255
-0.034931 0.0301974 0.667 0.0857825 0.398248 -0.913258 63 78 0 255
-0.0348786 0.0276847 0.666 0.101791 0.340169 -0.934839 115 122 51 255
-0.0347739 0.0214515 0.664 0.0701523 0.390062 -0.918112 113 132 128 255
-0.0347215 0.020191 0.663 0.0431285 0.392034 -0.918939 172 180 134 255
-0.034512 0.0103032 0.659 -0.0422688 0.287017 -0.956993 176 183 167 255
-0.034512 0.00908242 0.659 -0.039816 0.215842 -0.975616 178 181 164 255
-0.0344596 0.00784973 0.658 -0.0331575 0.139019 -0.989734 173 173 157 255
-0.0344596 0.00663083 0.658 -0.0231021 0.045527 -0.998696 170 172 158 255
-0.0344596 0.00419303 0.658 -0.0270979 -0.196934 -0.980042 174 179 173 255
-0.034512 0.00175789 0.659 0.0150891 -0.442562 -0.896611 194 192 190 255
-0.0346167 0.000538765 0.661 0.0125854 -0.641442 -0.767068 194 183 162 255
-0.0347739 -0.00191882 0.664 -0.0724137 -0.77469 -0.628181 169 157 77 255
-0.0349833 -0.00440524 0.668 -0.171848 -0.76226 -0.624041 174 164 88 255
-0.0351404 -0.00691099 0.671 -0.183568 -0.785714 -0.590726 146 145 105 255
-0.0351404 -0.00815397 0.671 -0.180296 -0.788667 -0.58779 106 104 114 255
-0.0359784 -0.0108936 0.687 0.0622546 -0.882486 -0.466201 78 80 66 255
-0.0361355 -0.0122194 0.69 0.083894 -0.852196 -0.516454 139 120 97 255
-0.0361878 -0.0135171 0.691 0.0863162 -0.876167 -0.474216 145 137 90 255
-0.0365021 -0.0162168 0.697 0.123923 -0.881681 -0.455281 188 186 130 255
-0.0368163 -0.0176587 0.703 0.0678012 -0.844883 -0.530637 179 173 154 255
-0.0368687 -0.0189879 0.704 0.048331 -0.855259 -0.515942 144 157 171 255
-0.0383874 -0.0279171 0.733 -0.0100838 -0.822243 -0.569048 183 190 219 255
-0.0383874 -0.0292749 0.733 -0.00463481 -0.817075 -0.576512 163 165 194 255
-0.0384398 -0.0306745 0.734 -0.0135696 -0.785735 -0.618414 154 157 178 255
-0.0384398 -0.0333939 0.734 -0.00640046 -0.780973 -0.624532 79 85 122 255
-0.0395395 -0.0371465 0.755 0.0214681 -0.942042 -0.334807 58 67 82 255
-0.0396443 -0.0386472 0.757 -0.0323214 -0.918535 -0.394015 64 70 75 255
-0.0398538 -0.0402611 0.761 -0.0810676 -0.881633 -0.46492 93 94 89 255
-0.0398538 -0.0416708 0.761 -0.0816236 -0.882023 -0.464083 177 177 175 255
-0.0407441 -0.0512489 0.778 -0.026741 -0.83543 -0.548946 180 157 188 255
-0.0407441 -0.0526901 0.778 -0.0271139 -0.840216 -0.541574 115 116 165 255
-0.0408488 -0.0542704 0.78 0.0360879 -0.88959 -0.455332 98 120 135 255
-0.0417915 -0.0584793 0.798 0.0382079 -0.951241 -0.306072 157 151 146 255
-0.0417915 -0.0599575 0.798 0.0357089 -0.952635 -0.302011 163 144 118 255
-0.0428912 -0.0676039 0.819 -0.0176421 -0.784363 -0.620051 191 168 73 255
-0.042996 -0.0692899 0.821 -0.0375224 -0.779322 -0.6255 183 168 148 255
0.0654941 0.00784973 0.658 -0.016726 -0.228167 -0.973478 188 193 191 255
0.0465501 0.0289184 0.666 -0.0414731 0.495825 -0.867431 184 182 164 255
-0.00155746 0.0164816 0.662 -0.105708 0.415439 -0.903458 152 153 130 255
-0.0364377 0.0403825 0.672 0.0026422 0.363731 -0.9315 165 155 117 255
-0.0363835 0.0378364 0.671 0.0108279 0.41274 -0.910784 62 75 34 255
-0.0363835 0.0365934 0.671 0.0114383 0.417619 -0.90855 63 68 37 255
-0.0363293 0.0352978 0.67 0.014844 0.427405 -0.903938 78 76 47 255
-0.0361666 0.031433 0.667 0.0537553 0.433337 -0.899628 65 73 38 255
-0.0361124 0.0276847 0.666 0.0848378 0.335591 -0.93818 126 120 102 255
-0.0360039 0.0214515 0.664 0.0510355 0.37623 -0.92512 117 125 102 255
0.00377279 -0.0297941 0.746 -0.0647007 -0.906454 -0.417319 109 109 109 255
-0.0359497 0.020191 0.663 0.038828 0.380323 -0.924038 175 176 155 255
0.0628293 -0.00576092 0.682 -0.0237292 -0.898076 -0.4392 203 200 131 255
-0.0358412 0.0140078 0.661 -0.0403417 0.388329 -0.920637 180 179 168 255
-0.0358412 0.0127834 0.661 -0.0408323 0.383029 -0.922833 181 181 167 255
-0.0357328 0.0103032 0.659 -0.0295195 0.295942 -0.95475 177 184 168 255
-0.0356786 0.00663083 0.658 -0.00910278 0.0399791 -0.999159 167 173 164 255
-0.0356786 0.00419303 0.658 -0.0245627 -0.204159 -0.978629 173 181 174 255
-0.0357328 0.00175789 0.659 -0.011208 -0.46352 -0.886015 193 191 185 255
-0.0359497 -0.000687769 0.663 -0.0308469 -0.741072 -0.670716 192 187 105 255
-0.0361124 -0.0019246 0.666 -0.0775931 -0.797783 -0.597931 174 167 115 255
-0.0362208 -0.00316781 0.668 -0.126694 -0.783021 -0.608955 166 159 93 255
-0.0365461 -0.00694189 0.674 -0.141215 -0.884484 -0.444688 166 149 45 255
-0.037251 -0.00962103 0.687 0.0829456 -0.902734 -0.422128 68 81 27 255
-0.037251 -0.0108936 0.687 0.104468 -0.865996 -0.489018 52 58 67 255
-0.037251 -0.0121663 0.687 0.104792 -0.845674 -0.52331 87 86 21 255
-0.037739 -0.0161935 0.696 0.149801 -0.892619 -0.425196 186 186 170 255
-0.0381728 -0.0189879 0.704 0.0142598 -0.868402 -0.495656 105 143 235 255
-0.0382813 -0.0229653 0.706 -0.0600183 -0.847685 -0.527095 197 186 179 255
-0.0383897 -0.0243419 0.708 -0.108732 -0.835961 -0.537909 215 214 108 255
-0.0384982 -0.0257259 0.71 -0.0584775 -0.865347 -0.49775 197 205 182 255
-0.0397995 -0.0279552 0.734 0.0207378 -0.802644 -0.596098 189 191 206 255
0.00672073 -0.0419994 0.767 -0.000343819 -0.908305 -0.418309 212 198 143 255
-0.039908 -0.0321215 0.736 0.0117965 -0.789703 -0.613376 93 100 129 255
-0.039908 -0.0334849 0.736 0.0116492 -0.792438 -0.609842 79 84 128 255
-0.039908 -0.0348483 0.736 0.0115652 -0.80401 -0.594503 63 72 100 255
-0.040884 -0.0370973 0.754 0.0446095 -0.951315 -0.304975 59 72 88 255
-0.0410466 -0.0386472 0.757 -0.000389732 -0.935064 -0.354478 43 56 56 255
-0.0412635 -0.0402611 0.761 -0.0643692 -0.887599 -0.456098 79 82 63 255
-0.0412635 -0.0416708 0.761 -0.0846951 -0.879399 -0.468491 183 166 174 255
-0.0420769 -0.0496796 0.776 -0.0723391 -0.808358 -0.58423 216 209 238 255
-0.0433782 -0.0586259 0.8 0.0290908 -0.953741 -0.299218 161 154 152 255
-0.0445169 -0.067769 0.821 -0.0437129 -0.787116 -0.615254 164 143 89 255
-0.0447338 -0.072684 0.825 -0.0779091 -0.848912 -0.52276 181 178 181 255
