ply
format ascii 1.0
element vertex 724
property float x
property float y
property float z
property float normal_x
property float normal_y
property float normal_z
property uchar red
property uchar green
property uchar blue
property uchar alpha
end_header
-0.626471 -0.183285 1.13 0.983495 0.0899438 0.156993 0 0 0 255
-0.626229 -0.196596 1.185 0.99603 0.0830995 -0.031903 0 0 0 255
-0.626406 -0.321575 1.153 0.982874 0.161727 0.0883405 0 0 0 255
-0.62467 -0.288244 1.123 0.997046 0.054073 0.0545419 0 0 0 255
-0.630768 -0.183114 1.169 0.996687 0.0812218 -0.00426733 0 0 0 255
-0.626229 -0.236109 1.185 0.999939 0.0109664 0.000901511 0 0 0 255
-0.626229 -0.26245 1.185 0.987495 0.0782245 -0.136873 0 0 0 255
-0.624233 -0.346 1.149 0.981281 -0.0859544 -0.172336 0 0 0 255
-0.626339 -0.384963 1.126 0.886712 -0.14931 -0.437547 0 0 0 255
-0.624114 -0.335137 1.141 0.957371 -0.120748 -0.262413 0 0 0 255
-0.632992 -0.392258 1.123 0.836829 -0.188196 -0.5141 0 0 0 255
-0.622167 -0.311958 1.126 0.999606 0.0197418 0.0199534 0 0 0 255
-0.624581 -0.294202 1.138 0.999141 -0.0305854 0.027956 0 0 0 255
-0.626791 -0.225683 1.112 0.985661 0.153302 0.0705091 0 0 0 255
-0.62858 -0.253274 1.173 0.999399 0.0267025 -0.0221148 0 0 0 255
-0.630511 -0.387049 1.126 0.846633 -0.169664 -0.504408 0 0 0 255
-0.624731 -0.359577 1.112 0.990638 -0.119621 -0.0657851 0 0 0 255
-0.628542 -0.180608 1.153 0.996865 0.0762121 0.0212734 0 0 0 255
-0.628491 -0.257189 1.181 0.989123 0.0753387 -0.126334 0 0 0 255
-0.630511 -0.389135 1.126 0.849915 -0.167607 -0.499552 0 0 0 255
-0.624581 -0.281554 1.138 0.975545 0.0503438 -0.213955 0 0 0 255
-0.626436 -0.260536 1.157 0.99315 0.0886019 0.0761693 0 0 0 255
-0.62858 -0.251101 1.173 0.999642 -0.00978892 -0.0249023 0 0 0 255
-0.626436 -0.232673 1.157 0.997137 -0.0646732 -0.0391911 0 0 0 255
-0.628425 -0.247084 1.185 0.992535 -0.0458643 -0.113011 0 0 0 255
-0.626228 -0.349932 1.141 0.998186 -0.00112923 -0.060197 0 0 0 255
-0.626591 -0.173209 1.119 0.992534 0.121255 0.0131556 0 0 0 255
-0.626591 -0.175282 1.119 0.992268 0.123227 0.0148079 0 0 0 255
-0.628602 -0.284893 1.169 0.999633 0.00346668 -0.0268623 0 0 0 255
-0.630679 -0.257189 1.181 0.987937 0.0774678 -0.134086 0 0 0 255
-0.626339 -0.318216 1.126 0.99809 -0.0377728 0.0488909 0 0 0 255
-0.628602 -0.287058 1.169 0.998804 0.00395609 -0.048729 0 0 0 255
-0.628482 -0.366744 1.115 0.977409 -0.20813 -0.0367913 0 0 0 255
-0.626471 -0.195845 1.13 0.994788 0.00944042 0.101532 0 0 0 255
-0.626037 -0.239913 1.193 0.999883 0.0139775 -0.00623448 0 0 0 255
-0.626451 -0.259286 1.161 0.995613 0.075946 0.0546594 0 0 0 255
-0.626791 -0.260702 1.112 0.996761 0.0228561 0.0771021 0 0 0 255
-0.62858 -0.290213 1.173 0.993284 0.027572 -0.11237 0 0 0 255
-0.620365 -0.28577 1.138 0.992519 0.034825 -0.11702 0 0 0 255
-0.620591 -0.27036 1.101 0.992719 0.019062 0.118938 0 0 0 255
-0.624034 -0.266841 1.185 0.986565 0.0883406 -0.137422 0 0 0 255
-0.626228 -0.368955 1.141 0.99905 -0.0197141 0.0388571 0 0 0 255
-0.624537 -0.352127 1.108 0.977732 -0.203614 -0.0508147 0 0 0 255
-0.622473 -0.28577 1.138 0.992801 0.035349 -0.11444 0 0 0 255
-0.626363 -0.26722 1.177 0.993789 0.0440105 -0.102212 0 0 0 255
-0.622846 -0.275436 1.105 0.98796 0.0169501 0.153779 0 0 0 255
-0.626339 -0.207666 1.126 0.987914 -0.129495 -0.085184 0 0 0 255
-0.624581 -0.28577 1.138 0.991372 0.0457135 -0.122851 0 0 0 255
-0.620611 -0.291601 1.112 0.997876 -0.0640058 -0.0121036 0 0 0 255
-0.626451 -0.227808 1.165 0.998021 -0.0139395 -0.06131 0 0 0 255
-0.623938 -0.265539 1.189 0.987547 0.0819175 -0.134314 0 0 0 255
-0.626471 -0.287948 1.13 0.993661 0.107225 -0.0337752 0 0 0 255
-0.624893 -0.275436 1.105 0.985792 0.0127531 0.167486 0 0 0 255
-0.62675 -0.373536 1.123 0.95152 -0.183046 -0.247191 0 0 0 255
-0.626451 -0.32708 1.165 0.990783 0.109164 0.080204 0 0 0 255
-0.628564 -0.394703 1.13 0.883321 -0.16856 -0.437414 0 0 0 255
-0.630723 -0.21124 1.157 0.996749 0.0719944 0.0361724 0 0 0 255
-0.628542 -0.18488 1.153 0.996958 0.0779336 -0.000874337 0 0 0 255
-0.628542 -0.187016 1.153 0.996066 0.0874784 -0.0141375 0 0 0 255
-0.622473 -0.281554 1.138 0.9778 0.0475734 -0.204068 0 0 0 255
-0.62675 -0.279923 1.123 0.991962 0.0993296 0.0783887 0 0 0 255
-0.626141 -0.208273 1.189 0.999588 0.00388408 0.0284263 0 0 0 255
-0.630678 -0.182744 1.153 0.997262 0.0736191 0.00691953 0 0 0 255
-0.630678 -0.18488 1.153 0.997131 0.0751107 -0.00938258 0 0 0 255
-0.628543 -0.27158 1.177 0.992456 0.0375158 -0.116719 0 0 0 255
-0.626689 -0.22042 1.138 0.996743 -0.0748884 -0.0299273 0 0 0 255
-0.620432 -0.337759 1.108 0.987144 -0.159471 -0.0107803 0 0 0 255
-0.626589 -0.345969 1.108 0.978482 -0.203313 -0.0351731 0 0 0 255
-0.624253 -0.324474 1.126 0.997929 -0.0456567 0.0453042 0 0 0 255
-0.636769 -0.422508 1.126 0.805136 -0.100382 -0.584534 0 0 0 255
-0.62858 -0.20547 1.173 0.993484 0.0555525 -0.0995139 0 0 0 255
-0.626407 -0.233718 1.173 0.998155 -0.0575736 -0.0193057 0 0 0 255
-0.626689 -0.214096 1.138 0.998195 -0.0585053 -0.0135687 0 0 0 255
-0.626689 -0.216204 1.138 0.998204 -0.0542214 -0.0254658 0 0 0 255
-0.624581 -0.332148 1.138 0.971699 -0.141126 -0.189432 0 0 0 255
-0.628343 -0.22369 1.189 0.999286 0.0180503 0.033197 0 0 0 255
-0.626361 -0.299175 1.149 0.990239 -0.0554868 0.127862 0 0 0 255
-0.630511 -0.384963 1.126 0.869489 -0.166871 -0.464911 0 0 0 255
-0.624253 -0.374534 1.126 0.958476 -0.123972 -0.256816 0 0 0 255
-0.624731 -0.357518 1.112 0.987182 -0.139924 -0.0767699 0 0 0 255
-0.624114 -0.244251 1.141 0.996086 0.0586578 0.0661163 0 0 0 255
-0.628602 -0.191776 1.169 0.999672 0.0255917 0.00103869 0 0 0 255
-0.628602 -0.193942 1.169 0.999608 0.0276317 -0.00462657 0 0 0 255
-0.624377 -0.327719 1.13 0.990167 -0.121308 -0.0696734 0 0 0 255
-0.624253 -0.255641 1.126 0.996574 0.0553672 0.0614343 0 0 0 255
-0.618551 -0.332799 1.112 0.988861 -0.0771401 0.127295 0 0 0 255
-0.626436 -0.288398 1.157 0.98874 -0.0710503 0.131704 0 0 0 255
-0.626587 -0.183934 1.134 0.981668 0.0852006 0.170497 0 0 0 255
-0.628579 -0.301258 1.157 0.999594 0.00569542 0.0279128 0 0 0 255
-0.626229 -0.240499 1.185 0.999286 -0.026889 -0.026535 0 0 0 255
-0.628688 -0.23645 1.134 0.998513 0.0312327 0.0446836 0 0 0 255
-0.628688 -0.238551 1.134 0.99763 0.0462055 0.050989 0 0 0 255
-0.626591 -0.166991 1.119 0.990575 0.127553 0.0499116 0 0 0 255
-0.624581 -0.321607 1.138 0.999774 0.0146037 -0.0154743 0 0 0 255
-0.628851 -0.30602 1.112 0.99282 0.0898424 -0.0789686 0 0 0 255
-0.626228 -0.335137 1.141 0.957752 -0.119562 -0.261563 0 0 0 255
-0.628542 -0.251091 1.153 0.996275 0.0489215 0.0710168 0 0 0 255
-0.618551 -0.327467 1.101 0.999091 0.00672709 0.0420843 0 0 0 255
-0.618551 -0.335625 1.101 0.991351 -0.129703 0.0200178 0 0 0 255
-0.626339 -0.382877 1.126 0.894836 -0.141032 -0.423531 0 0 0 255
-0.626451 -0.324922 1.165 0.98967 0.125241 0.06977 0 0 0 255
-0.624253 -0.251469 1.126 0.991173 0.119105 0.0582265 0 0 0 255
-0.622631 -0.327467 1.101 0.999092 0.00615901 0.0421468 0 0 0 255
-0.628542 -0.253227 1.153 0.996072 0.0553034 0.069154 0 0 0 255
-0.624487 -0.379295 1.134 0.991399 -0.0413275 -0.124175 0 0 0 255
-0.624487 -0.381396 1.134 0.986368 -0.0793262 -0.14417 0 0 0 255
-0.624581 -0.243609 1.138 0.995768 0.0728931 0.0559733 0 0 0 255
-0.630679 -0.187182 1.181 0.997479 0.06609 -0.0258329 0 0 0 255
-0.62467 -0.331546 1.101 0.991815 -0.0767979 0.102009 0 0 0 255
-0.626339 -0.176379 1.126 0.987847 0.145441 0.0548133 0 0 0 255
-0.626363 -0.280301 1.177 0.995825 -0.00744373 -0.0909759 0 0 0 255
-0.628391 -0.204548 1.206 0.998125 -0.0031263 0.0611321 0 0 0 255
-0.622671 -0.285421 1.112 0.991855 -0.0243871 0.125016 0 0 0 255
-0.62206 -0.329949 1.145 0.993677 -0.027647 -0.108817 0 0 0 255
-0.628533 -0.221683 1.202 0.999229 0.0250235 0.0302372 0 0 0 255
-0.626229 -0.264646 1.185 0.98696 0.0841975 -0.137188 0 0 0 255
-0.626228 -0.362614 1.141 0.996951 -0.0698405 0.0348027 0 0 0 255
-0.626339 -0.243126 1.126 0.98926 0.0834041 0.120035 0 0 0 255
-0.626407 -0.225026 1.173 0.998958 0.0293772 0.0349236 0 0 0 255
-0.628609 -0.303341 1.165 0.998989 0.0285326 -0.0347368 0 0 0 255
-0.62467 -0.335625 1.101 0.991171 -0.127941 0.0348107 0 0 0 255
-0.630511 -0.395392 1.126 0.844744 -0.177175 -0.504992 0 0 0 255
-0.626406 -0.291673 1.153 0.985171 -0.104059 0.136418 0 0 0 255
-0.62206 -0.334191 1.145 0.978131 -0.0803357 -0.19185 0 0 0 255
-0.626451 -0.221333 1.165 0.991196 0.104824 -0.0808849 0 0 0 255
-0.628482 -0.368809 1.115 0.980038 -0.195099 -0.038228 0 0 0 255
-0.624114 -0.275955 1.141 0.987713 0.0880063 -0.129141 0 0 0 255
-0.62427 -0.321575 1.153 0.983496 0.159532 0.0853512 0 0 0 255
-0.624253 -0.261898 1.126 0.993658 -0.105857 0.0379203 0 0 0 255
-0.628688 -0.391899 1.134 0.904576 -0.129368 -0.40621 0 0 0 255
-0.624537 -0.284394 1.108 0.99016 -0.0342544 0.135684 0 0 0 255
-0.62849 -0.307688 1.149 0.987817 0.0862553 0.129525 0 0 0 255
-0.626407 -0.279349 1.173 0.998952 -0.0139658 -0.0435849 0 0 0 255
-0.62675 -0.277843 1.123 0.994515 0.0616642 0.0844821 0 0 0 255
-0.622484 -0.313129 1.108 0.975835 0.218305 -0.00945128 0 0 0 255
-0.630625 -0.20008 1.206 0.998408 0.0295348 0.0480554 0 0 0 255
-0.628851 -0.3019 1.112 0.998133 0.0319264 -0.0520616 0 0 0 255
-0.626471 -0.246083 1.13 0.987955 0.110471 0.108359 0 0 0 255
-0.628831 -0.275762 1.123 0.996169 0.0214403 0.0847744 0 0 0 255
-0.635072 -0.392258 1.123 0.835279 -0.192284 -0.515108 0 0 0 255
-0.626451 -0.218423 1.161 0.989892 0.129941 -0.0568341 0 0 0 255
-0.622484 -0.286447 1.108 0.994575 -0.0500045 0.0912179 0 0 0 255
-0.626302 -0.372369 1.145 0.99927 -0.0245432 0.0292707 0 0 0 255
-0.626417 -0.203572 1.115 0.983806 -0.151822 -0.0952646 0 0 0 255
-0.622284 -0.354932 1.13 0.996079 -0.0225546 0.0855491 0 0 0 255
-0.628579 -0.234816 1.157 0.997282 -0.0679783 -0.028428 0 0 0 255
-0.626339 -0.236868 1.126 0.989408 0.0575097 0.133282 0 0 0 255
-0.624351 -0.189114 1.115 0.997913 0.0268387 -0.058733 0 0 0 255
-0.628391 -0.209016 1.206 0.997941 -0.00958806 0.0634224 0 0 0 255
-0.624537 -0.286447 1.108 0.992889 -0.04528 0.110097 0 0 0 255
-0.624537 -0.288499 1.108 0.996683 -0.0764907 0.0277849 0 0 0 255
-0.628342 -0.187183 1.141 0.992425 0.0756471 0.096796 0 0 0 255
-0.626791 -0.258642 1.112 0.998091 0.0422822 0.0450289 0 0 0 255
-0.630625 -0.202314 1.206 0.998129 0.016932 0.0587446 0 0 0 255
-0.626791 -0.184485 1.112 0.994717 0.0722313 -0.072941 0 0 0 255
-0.622671 -0.258642 1.112 0.997875 0.0542736 0.0360548 0 0 0 255
-0.624233 -0.341744 1.149 0.978018 -0.107849 -0.178467 0 0 0 255
-0.626791 -0.219504 1.112 0.993677 0.0855297 0.0727382 0 0 0 255
-0.628425 -0.168035 1.126 0.98883 0.133707 0.0658561 0 0 0 255
-0.626302 -0.378733 1.145 0.999486 -0.0274152 0.0166426 0 0 0 255
-0.624731 -0.250402 1.112 0.999498 0.0131933 -0.0288159 0 0 0 255
-0.624731 -0.254522 1.112 0.999453 0.0265902 0.019654 0 0 0 255
-0.62427 -0.349341 1.153 0.985739 -0.102583 -0.133402 0 0 0 255
-0.626228 -0.233683 1.141 0.999817 0.00315807 0.018886 0 0 0 255
-0.630752 -0.205519 1.161 0.999432 0.0226841 -0.0249055 0 0 0 255
-0.624293 -0.33555 1.157 0.999543 0.0212782 0.0214694 0 0 0 255
-0.628542 -0.189152 1.153 0.996038 0.0868662 -0.0190407 0 0 0 255
-0.626791 -0.254522 1.112 0.999789 0.0194181 0.00672053 0 0 0 255
-0.628664 -0.171137 1.119 0.99165 0.121684 0.0426921 0 0 0 255
-0.628233 -0.205227 1.21 0.998133 -0.00459683 0.0609009 0 0 0 255
-0.634683 -0.420422 1.126 0.807614 -0.0997139 -0.58122 0 0 0 255
-0.624181 -0.27056 1.145 0.989555 0.142066 0.0244462 0 0 0 255
-0.624537 -0.235134 1.108 0.998177 0.0476886 0.0369817 0 0 0 255
-0.626228 -0.265387 1.141 0.99558 0.0641538 0.0685912 0 0 0 255
-0.637152 -0.427623 1.123 0.777346 -0.0972224 -0.621515 0 0 0 255
-0.62427 -0.351477 1.153 0.986605 -0.0977281 -0.130617 0 0 0 255
-0.626451 -0.263587 1.161 0.996462 0.0710858 0.0448402 0 0 0 255
-0.628543 -0.206171 1.177 0.995345 0.0556879 -0.0786566 0 0 0 255
-0.626229 -0.247084 1.185 0.992873 -0.0381365 -0.112914 0 0 0 255
-0.630768 -0.250245 1.169 0.999627 -0.0195224 0.0190962 0 0 0 255
-0.626471 -0.185378 1.13 0.985318 0.0726412 0.154504 0 0 0 255
-0.624351 -0.249012 1.115 0.999479 0.0276007 0.0167329 0 0 0 255
-0.628425 -0.389135 1.126 0.862341 -0.163386 -0.479242 0 0 0 255
-0.626436 -0.221957 1.157 0.996992 0.0769635 -0.00910362 0 0 0 255
-0.624253 -0.257727 1.126 0.998577 -0.0068895 0.0528916 0 0 0 255
-0.62022 -0.263471 1.115 0.992687 -0.0198593 0.119072 0 0 0 255
-0.628798 -0.34058 1.138 0.986601 -0.0407407 -0.157981 0 0 0 255
-0.628602 -0.250245 1.169 0.999463 -0.0222344 0.0240673 0 0 0 255
-0.622286 -0.253143 1.115 0.999788 0.0197701 -0.00567565 0 0 0 255
-0.622286 -0.25934 1.115 0.997426 0.031195 0.0645649 0 0 0 255
-0.622286 -0.261405 1.115 0.994771 -0.00465113 0.102023 0 0 0 255
-0.624253 -0.26607 1.126 0.990123 -0.139937 0.0086499 0 0 0 255
-0.630768 -0.248079 1.169 0.998602 -0.0515873 0.011538 0 0 0 255
-0.624351 -0.261405 1.115 0.995042 -0.013495 0.0985382 0 0 0 255
-0.624351 -0.263471 1.115 0.99319 -0.0215267 0.114502 0 0 0 255
-0.62858 -0.192433 1.173 0.998658 0.048422 -0.0183745 0 0 0 255
-0.628688 -0.345685 1.134 0.996744 0.0554955 -0.0584949 0 0 0 255
-0.628602 -0.204769 1.169 0.995832 0.0406538 -0.0816395 0 0 0 255
-0.62675 -0.284084 1.123 0.990844 0.122677 0.0563744 0 0 0 255
-0.622167 -0.309873 1.126 0.99941 0.0300918 0.0165532 0 0 0 255
-0.626587 -0.387698 1.134 0.960809 -0.135305 -0.241947 0 0 0 255
-0.624377 -0.382144 1.13 0.945522 -0.106477 -0.307653 0 0 0 255
-0.626591 -0.181501 1.119 0.992962 0.116606 -0.020741 0 0 0 255
-0.626228 -0.301319 1.141 0.990767 0.00415661 0.135508 0 0 0 255
-0.628425 -0.194401 1.185 0.995209 0.0908156 -0.0362312 0 0 0 255
-0.634683 -0.414165 1.126 0.777396 -0.0974957 -0.621409 0 0 0 255
-0.626689 -0.34058 1.138 0.985944 -0.0442384 -0.161112 0 0 0 255
-0.626228 -0.303432 1.141 0.989863 0.033086 0.138122 0 0 0 255
-0.628425 -0.380791 1.126 0.902132 -0.147027 -0.405637 0 0 0 255
-0.63062 -0.251475 1.185 0.990097 0.0206962 -0.13885 0 0 0 255
-0.630511 -0.393306 1.126 0.855233 -0.161608 -0.492402 0 0 0 255
-0.626589 -0.241292 1.108 0.999088 0.0316086 0.0287115 0 0 0 255
-0.626303 -0.204684 1.181 0.996184 0.0553527 -0.0674738 0 0 0 255
-0.628602 -0.235628 1.161 0.994586 -0.0833636 -0.0620466 0 0 0 255
-0.628425 -0.270242 1.126 0.992496 -0.121671 -0.0121885 0 0 0 255
-0.624377 -0.300507 1.13 0.998811 0.043048 0.0228718 0 0 0 255
-0.626229 -0.266841 1.185 0.987001 0.0879232 -0.13453 0 0 0 255
-0.628491 -0.233124 1.181 0.999795 0.0199151 -0.0035383 0 0 0 255
-0.6243 -0.229176 1.161 0.99755 -0.0389329 -0.0581258 0 0 0 255
-0.626436 -0.232921 1.169 0.997239 -0.0707836 -0.0224313 0 0 0 255
-0.628061 -0.203656 1.214 0.998042 0.00114494 0.0625431 0 0 0 255
-0.626451 -0.322763 1.165 0.988883 0.140202 0.049533 0 0 0 255
-0.626406 -0.251091 1.153 0.996132 0.0457452 0.0750199 0 0 0 255
-0.628851 -0.359577 1.112 0.986256 -0.156371 -0.0533557 0 0 0 255
-0.624581 -0.268906 1.138 0.998117 0.0416964 -0.0449947 0 0 0 255
-0.626229 -0.231718 1.185 0.999046 0.0401378 0.0171859 0 0 0 255
-0.636769 -0.407907 1.126 0.773197 -0.114672 -0.623712 0 0 0 255
-0.628602 -0.206935 1.169 0.9956 0.0465568 -0.081317 0 0 0 255
-0.626791 -0.3019 1.112 0.997938 0.0313397 -0.0560202 0 0 0 255
-0.636769 -0.397478 1.126 0.810085 -0.220122 -0.543423 0 0 0 255
-0.628602 -0.30445 1.161 0.999018 0.0412353 -0.0162293 0 0 0 255
-0.63281 -0.210521 1.119 0.996183 -0.0712239 -0.0504735 0 0 0 255
-0.624487 -0.26796 1.134 0.995966 -0.0227856 -0.08679 0 0 0 255
-0.628851 -0.260702 1.112 0.994973 0.0119953 0.0994232 0 0 0 255
-0.628579 -0.176948 1.157 0.997137 0.0734264 0.0180921 0 0 0 255
-0.62022 -0.257274 1.115 0.998706 0.031274 0.0401025 0 0 0 255
-0.620591 -0.268321 1.101 0.996732 0.0267218 0.0762355 0 0 0 255
-0.628425 -0.399564 1.126 0.829253 -0.20633 -0.519391 0 0 0 255
-0.628602 -0.20982 1.161 0.997162 0.0669943 -0.0343555 0 0 0 255
-0.624893 -0.263155 1.105 0.997269 0.0333744 0.0658827 0 0 0 255
-0.628342 -0.375296 1.141 0.999496 0.0130572 -0.0289274 0 0 0 255
-0.628602 -0.196107 1.169 0.99977 0.0190132 -0.00992527 0 0 0 255
-0.626141 -0.22369 1.189 0.999261 0.0181225 0.0339095 0 0 0 255
-0.626141 -0.230298 1.189 0.999072 0.0394496 0.0172933 0 0 0 255
-0.628342 -0.199865 1.141 0.992315 0.0749514 0.0984533 0 0 0 255
-0.624537 -0.350074 1.108 0.97475 -0.218148 -0.0476818 0 0 0 255
-0.624581 -0.273122 1.138 0.988086 0.0499581 -0.145571 0 0 0 255
-0.634844 -0.413543 1.13 0.801988 -0.097684 -0.589299 0 0 0 255
-0.628609 -0.296866 1.165 0.999502 0.0223688 -0.0222568 0 0 0 255
-0.628609 -0.301183 1.165 0.999273 0.0218069 -0.0312729 0 0 0 255
-0.622167 -0.301529 1.126 0.997458 0.0645438 -0.0301822 0 0 0 255
-0.626471 -0.187472 1.13 0.985205 0.0634618 0.159198 0 0 0 255
-0.622286 -0.263471 1.115 0.992755 -0.0196933 0.118534 0 0 0 255
-0.626436 -0.239417 1.169 0.992048 -0.116598 -0.0473965 0 0 0 255
-0.626689 -0.218312 1.138 0.997402 -0.0674933 -0.0251934 0 0 0 255
-0.626228 -0.23791 1.141 0.99906 0.0277363 0.0333114 0 0 0 255
-0.628423 -0.255712 1.145 0.99335 0.0724953 0.0894446 0 0 0 255
-0.628423 -0.257833 1.145 0.993778 0.066876 0.0890705 0 0 0 255
-0.62849 -0.20978 1.149 0.994776 0.0408201 0.0935685 0 0 0 255
-0.628688 -0.364591 1.134 0.994519 -0.104217 0.00845713 0 0 0 255
-0.626406 -0.225461 1.153 0.99977 -0.0186699 -0.0105096 0 0 0 255
-0.628688 -0.341484 1.134 0.997874 0.00407504 -0.0650482 0 0 0 255
-0.628602 -0.297998 1.161 0.999967 0.00715077 0.00392642 0 0 0 255
-0.622671 -0.277181 1.112 0.983782 0.0187416 0.178386 0 0 0 255
-0.622671 -0.279241 1.112 0.98488 0.0234539 0.171645 0 0 0 255
-0.622671 -0.283361 1.112 0.98774 0.00192275 0.1561 0 0 0 255
-0.626303 -0.279066 1.181 0.984205 0.0101501 -0.176741 0 0 0 255
-0.624114 -0.269614 1.141 0.99476 0.101083 0.015312 0 0 0 255
-0.626589 -0.239239 1.108 0.998731 0.0378462 0.0332126 0 0 0 255
-0.624731 -0.256582 1.112 0.998427 0.0369755 0.042159 0 0 0 255
-0.624581 -0.279446 1.138 0.971352 0.0351388 -0.235035 0 0 0 255
-0.628851 -0.165946 1.112 0.992783 0.11795 0.0216601 0 0 0 255
-0.628542 -0.219054 1.153 0.995165 0.0919231 0.0345918 0 0 0 255
-0.62467 -0.286164 1.123 0.994605 0.0935011 0.0449286 0 0 0 255
-0.62467 -0.294485 1.123 0.99811 0.0614482 0.000376633 0 0 0 255
-0.628564 -0.39889 1.13 0.862671 -0.202228 -0.463576 0 0 0 255
-0.618379 -0.329549 1.108 0.993233 -0.0208443 0.114252 0 0 0 255
-0.62467 -0.315288 1.123 0.999999 0.00134708 -0.000598891 0 0 0 255
-0.626436 -0.249819 1.157 0.998738 0.0243086 0.0439445 0 0 0 255
-0.628342 -0.197751 1.141 0.991319 0.0939672 0.0919562 0 0 0 255
-0.626407 -0.277176 1.173 0.998877 -0.0135119 -0.0454146 0 0 0 255
-0.628542 -0.223325 1.153 0.999297 0.0347246 0.0141047 0 0 0 255
-0.626407 -0.259793 1.173 0.994694 0.09669 -0.0351474 0 0 0 255
-0.62694 -0.351173 1.105 0.975539 -0.211655 -0.0593775 0 0 0 255
-0.626689 -0.292094 1.138 0.999704 -0.0184717 0.0158204 0 0 0 255
-0.628542 -0.257499 1.153 0.993045 0.0904526 0.0753608 0 0 0 255
-0.624518 -0.237469 1.119 0.994644 0.0494098 0.0907895 0 0 0 255
-0.628851 -0.180366 1.112 0.99331 0.0949051 -0.0657888 0 0 0 255
-0.62467 -0.376416 1.101 0.986012 -0.166547 0.00651886 0 0 0 255
-0.635072 -0.425543 1.123 0.775559 -0.0969595 -0.623784 0 0 0 255
-0.624351 -0.246947 1.115 0.999097 0.0321121 0.0278275 0 0 0 255
-0.628542 -0.238276 1.153 0.99923 -0.0387836 -0.00590057 0 0 0 255
-0.628425 -0.25367 1.185 0.989117 0.0428927 -0.140741 0 0 0 255
-0.62427 -0.285265 1.153 0.988212 -0.0470853 0.145669 0 0 0 255
-0.626451 -0.27434 1.161 0.994273 0.0403654 0.0989497 0 0 0 255
-0.630768 -0.206935 1.169 0.995309 0.0542918 -0.080079 0 0 0 255
-0.632992 -0.390178 1.123 0.829732 -0.173339 -0.530564 0 0 0 255
-0.62858 -0.266311 1.173 0.997695 0.0507755 -0.0450082 0 0 0 255
-0.628542 -0.221189 1.153 0.997433 0.0696274 0.0167072 0 0 0 255
-0.634683 -0.407907 1.126 0.79995 -0.130799 -0.585638 0 0 0 255
-0.628688 -0.215444 1.134 0.98942 -0.0922503 -0.111972 0 0 0 255
-0.626589 -0.222819 1.108 0.989108 0.124203 0.0789848 0 0 0 255
-0.628609 -0.299024 1.165 0.999172 0.0271413 -0.0303111 0 0 0 255
-0.626302 -0.217534 1.145 0.99996 0.000582604 0.00890249 0 0 0 255
-0.628482 -0.207703 1.115 0.99342 -0.104472 -0.0469212 0 0 0 255
-0.626791 -0.223624 1.112 0.986762 0.138233 0.0848104 0 0 0 255
-0.630511 -0.163864 1.126 0.987935 0.135939 0.0741906 0 0 0 255
-0.626037 -0.211183 1.193 0.998161 -0.0182234 0.0578146 0 0 0 255
-0.624114 -0.35416 1.141 0.998071 -0.0596905 -0.0170921 0 0 0 255
-0.625919 -0.240717 1.197 0.999639 0.0243701 -0.0113076 0 0 0 255
-0.628425 -0.222938 1.185 0.999531 0.0117478 0.0282637 0 0 0 255
-0.626302 -0.228139 1.145 0.997985 -0.0558051 -0.0301916 0 0 0 255
-0.630906 -0.241501 1.138 0.997542 0.0493856 0.0497163 0 0 0 255
-0.622473 -0.279446 1.138 0.977004 0.0377385 -0.209857 0 0 0 255
-0.628609 -0.242914 1.165 0.995669 -0.0875019 -0.0314162 0 0 0 255
-0.628602 -0.310879 1.169 0.993787 0.0900397 -0.0654211 0 0 0 255
-0.626591 -0.225031 1.119 0.986774 0.149309 0.0631201 0 0 0 255
-0.626228 -0.231569 1.141 0.999863 -0.0163499 -0.00253685 0 0 0 255
-0.624581 -0.306851 1.138 0.991799 0.043744 0.120092 0 0 0 255
-0.626417 -0.180852 1.115 0.993933 0.103045 -0.0384441 0 0 0 255
-0.624377 -0.354932 1.13 0.99628 -0.0217948 0.0833767 0 0 0 255
-0.624377 -0.359118 1.13 0.996343 -0.0543045 0.0659662 0 0 0 255
-0.626339 -0.205581 1.126 0.987807 -0.142201 -0.063377 0 0 0 255
-0.626436 -0.269109 1.157 0.989722 0.0991891 0.103015 0 0 0 255
-0.626436 -0.277682 1.157 0.986983 0.0367023 0.156582 0 0 0 255
-0.625919 -0.234065 1.197 0.99962 0.0267467 0.0067017 0 0 0 255
-0.625919 -0.236282 1.197 0.999784 0.020328 0.00437182 0 0 0 255
-0.625919 -0.242934 1.197 0.999344 0.0247556 -0.0264476 0 0 0 255
-0.626589 -0.313129 1.108 0.97955 0.200892 0.0111576 0 0 0 255
-0.626407 -0.242409 1.173 0.98959 -0.133815 -0.0529562 0 0 0 255
-0.630723 -0.256318 1.177 0.991331 0.0615835 -0.116061 0 0 0 255
-0.622631 -0.266281 1.101 0.997319 0.0282946 0.067491 0 0 0 255
-0.628664 -0.208448 1.119 0.991002 -0.115723 -0.067258 0 0 0 255
-0.628542 -0.29808 1.153 0.99292 -0.0564871 0.10449 0 0 0 255
-0.622134 -0.342933 1.153 0.989576 -0.0880969 -0.113926 0 0 0 255
-0.626589 -0.231029 1.108 0.993429 0.0846071 0.0770725 0 0 0 255
-0.634683 -0.418336 1.126 0.78994 -0.0973121 -0.605413 0 0 0 255
-0.624893 -0.281577 1.105 0.982857 -0.0133438 0.183888 0 0 0 255
-0.626436 -0.241583 1.169 0.992459 -0.116591 -0.0378387 0 0 0 255
-0.626436 -0.307687 1.157 0.996997 0.0712879 0.0302559 0 0 0 255
-0.626302 -0.219655 1.145 0.999761 -0.017291 -0.0133864 0 0 0 255
-0.628061 -0.201408 1.214 0.997991 0.00874631 0.062743 0 0 0 255
-0.626587 -0.345685 1.134 0.996525 0.0599533 -0.0578284 0 0 0 255
-0.636769 -0.418336 1.126 0.784875 -0.100227 -0.611495 0 0 0 255
-0.624116 -0.285629 1.181 0.989557 0.0319623 -0.140554 0 0 0 255
-0.628343 -0.208273 1.189 0.999606 0.0129895 0.0248997 0 0 0 255
-0.622 -0.335137 1.141 0.959812 -0.115157 -0.255929 0 0 0 255
-0.626339 -0.234782 1.126 0.990226 0.0583902 0.126661 0 0 0 255
-0.626417 -0.162263 1.115 0.991415 0.120762 0.050132 0 0 0 255
-0.62467 -0.296565 1.123 0.99937 0.0265882 -0.0235002 0 0 0 255
-0.626407 -0.301078 1.173 0.993864 0.0233429 -0.108117 0 0 0 255
-0.620432 -0.323392 1.108 0.99091 0.103776 0.0856002 0 0 0 255
-0.626471 -0.39889 1.13 0.867724 -0.196857 -0.456401 0 0 0 255
-0.632992 -0.375616 1.123 0.938334 -0.167672 -0.30235 0 0 0 255
-0.626303 -0.285629 1.181 0.989321 0.037081 -0.140954 0 0 0 255
-0.62467 -0.309047 1.123 0.996553 0.0709811 -0.0429327 0 0 0 255
-0.62467 -0.313208 1.123 0.999485 0.032076 0.000451273 0 0 0 255
-0.628602 -0.241583 1.169 0.991086 -0.126971 -0.0403443 0 0 0 255
-0.626451 -0.261436 1.161 0.995911 0.0806922 0.0406239 0 0 0 255
-0.628491 -0.226561 1.181 0.99923 0.0224021 0.0322044 0 0 0 255
-0.628798 -0.241501 1.138 0.997143 0.056982 0.0495936 0 0 0 255
-0.626228 -0.339364 1.141 0.964357 -0.10963 -0.240824 0 0 0 255
-0.636769 -0.405821 1.126 0.811648 -0.159944 -0.561824 0 0 0 255
-0.626587 -0.333081 1.134 0.979185 -0.150027 -0.136707 0 0 0 255
-0.637152 -0.425543 1.123 0.776901 -0.0969128 -0.62212 0 0 0 255
-0.62849 -0.254477 1.149 0.994489 0.0719959 0.0762103 0 0 0 255
-0.624731 -0.351338 1.112 0.982899 -0.176804 -0.0514776 0 0 0 255
-0.630548 -0.368809 1.115 0.980033 -0.195372 -0.0369454 0 0 0 255
-0.626587 -0.282665 1.134 0.978288 0.0775644 -0.192187 0 0 0 255
-0.622 -0.288637 1.141 0.999513 -0.0243233 -0.0195367 0 0 0 255
-0.628798 -0.344796 1.138 0.994026 0.033546 -0.103859 0 0 0 255
-0.62675 -0.367295 1.123 0.972973 -0.200509 -0.114545 0 0 0 255
-0.628564 -0.39261 1.13 0.894747 -0.138381 -0.424592 0 0 0 255
-0.626363 -0.238875 1.177 0.995268 -0.0804832 -0.0544455 0 0 0 255
-0.626363 -0.241056 1.177 0.993004 -0.102405 -0.0587946 0 0 0 255
-0.62675 -0.236237 1.123 0.989056 0.0632947 0.133271 0 0 0 255
-0.624351 -0.244882 1.115 0.998778 0.0345769 0.0353179 0 0 0 255
-0.635072 -0.394339 1.123 0.842432 -0.183328 -0.506655 0 0 0 255
-0.628542 -0.212646 1.153 0.994829 0.0733248 0.0702746 0 0 0 255
-0.62849 -0.239578 1.149 0.999989 0.00184597 -0.00433955 0 0 0 255
-0.628609 -0.184646 1.165 0.997075 0.0760055 -0.00798344 0 0 0 255
-0.626791 -0.227743 1.112 0.987311 0.142262 0.0705528 0 0 0 255
-0.626363 -0.20399 1.177 0.994032 0.0694535 -0.0841233 0 0 0 255
-0.624581 -0.271014 1.138 0.994839 0.0479341 -0.0894326 0 0 0 255
-0.624487 -0.293168 1.134 0.999645 0.0196242 -0.0180013 0 0 0 255
-0.62849 -0.3609 1.149 0.994867 -0.0855597 -0.0540242 0 0 0 255
-0.628609 -0.255863 1.165 0.997692 0.0622956 0.0270208 0 0 0 255
-0.622286 -0.317173 1.115 0.992071 0.116778 0.0464472 0 0 0 255
-0.626436 -0.251963 1.157 0.997402 0.0453229 0.0559974 0 0 0 255
-0.624537 -0.265922 1.108 0.991742 0.0136224 0.127526 0 0 0 255
-0.628564 -0.403076 1.13 0.845886 -0.198438 -0.495075 0 0 0 255
-0.626587 -0.293168 1.134 0.999474 0.0302101 -0.0117715 0 0 0 255
-0.626451 -0.267888 1.161 0.99656 0.0550184 0.061982 0 0 0 255
-0.622631 -0.335625 1.101 0.991289 -0.12878 0.0276072 0 0 0 255
-0.628564 -0.390517 1.13 0.893048 -0.156233 -0.421968 0 0 0 255
-0.634683 -0.422508 1.126 0.811138 -0.100899 -0.576085 0 0 0 255
-0.628609 -0.195436 1.165 0.999901 0.00185287 -0.0139602 0 0 0 255
-0.626451 -0.216272 1.161 0.989878 0.134129 -0.0463724 0 0 0 255
-0.620591 -0.335625 1.101 0.991375 -0.129473 0.0202983 0 0 0 255
-0.626037 -0.231073 1.193 0.999299 0.0346837 0.0140694 0 0 0 255
-0.630544 -0.179355 1.145 0.996187 0.0652519 0.0579132 0 0 0 255
-0.626471 -0.394703 1.13 0.886332 -0.15258 -0.437189 0 0 0 255
-0.62467 -0.311127 1.123 0.998119 0.0528953 -0.0309795 0 0 0 255
-0.624518 -0.349404 1.119 0.996207 -0.0866831 0.00763568 0 0 0 255
-0.624034 -0.26245 1.185 0.98798 0.0769494 -0.134072 0 0 0 255
-0.628425 -0.24928 1.185 0.990919 -0.0170033 -0.133377 0 0 0 255
-0.628391 -0.20008 1.206 0.998141 0.0323904 0.0516332 0 0 0 255
-0.632814 -0.182744 1.153 0.997372 0.0723973 0.00284268 0 0 0 255
-0.626436 -0.318404 1.157 0.98093 0.165291 0.102248 0 0 0 255
-0.628533 -0.228363 1.202 0.998927 0.0436921 0.015354 0 0 0 255
-0.622671 -0.316319 1.112 0.984376 0.165241 0.0608174 0 0 0 255
-0.626363 -0.278121 1.177 0.995017 -0.0147532 -0.0986063 0 0 0 255
-0.626303 -0.244063 1.181 0.992807 -0.0951875 -0.0726153 0 0 0 255
-0.626591 -0.266489 1.119 0.995351 -0.0763521 0.0587069 0 0 0 255
-0.628798 -0.17615 1.138 0.988984 0.0876301 0.119301 0 0 0 255
-0.628688 -0.221746 1.134 0.996962 -0.0564855 -0.0536305 0 0 0 255
-0.628425 -0.251475 1.185 0.989519 0.0197036 -0.143049 0 0 0 255
-0.626689 -0.243609 1.138 0.99617 0.0667707 0.0564459 0 0 0 255
-0.62427 -0.353613 1.153 0.987217 -0.0952636 -0.127776 0 0 0 255
-0.628491 -0.24625 1.181 0.992159 -0.07188 -0.10224 0 0 0 255
-0.62427 -0.355748 1.153 0.988932 -0.0968279 -0.112414 0 0 0 255
-0.62427 -0.357884 1.153 0.988821 -0.096933 -0.113304 0 0 0 255
-0.628542 -0.227597 1.153 0.998835 -0.0423558 -0.023117 0 0 0 255
-0.626436 -0.222093 1.169 0.997766 0.0667929 -0.00112352 0 0 0 255
-0.626436 -0.226424 1.169 0.999988 0.00404962 0.00290055 0 0 0 255
-0.626436 -0.230755 1.169 0.998608 -0.0517363 -0.0103155 0 0 0 255
-0.624487 -0.303672 1.134 0.995328 0.0371038 0.08914 0 0 0 255
-0.626363 -0.286842 1.177 0.992465 0.0430228 -0.114726 0 0 0 255
-0.628602 -0.244231 1.161 0.99878 -0.0493551 -0.00175276 0 0 0 255
-0.628798 -0.188799 1.138 0.985533 0.0800098 0.149407 0 0 0 255
-0.626587 -0.186035 1.134 0.982845 0.0751414 0.168432 0 0 0 255
-0.626689 -0.342688 1.138 0.990862 -0.00742514 -0.134677 0 0 0 255
-0.62849 -0.363028 1.149 0.997739 -0.0596733 -0.0309224 0 0 0 255
-0.62858 -0.28804 1.173 0.996093 0.0252268 -0.0846341 0 0 0 255
-0.626406 -0.357884 1.153 0.98771 -0.0923603 -0.12609 0 0 0 255
-0.630679 -0.250626 1.181 0.993165 0.00202073 -0.116699 0 0 0 255
-0.622671 -0.254522 1.112 0.999013 0.0419151 0.0146665 0 0 0 255
-0.624351 -0.242816 1.115 0.998951 0.0275796 0.0365484 0 0 0 255
-0.628688 -0.192337 1.134 0.987739 0.0647585 0.142046 0 0 0 255
-0.620799 -0.324563 1.105 0.993885 0.062244 0.0912072 0 0 0 255
-0.630619 -0.177853 1.149 0.996978 0.0659532 0.0410566 0 0 0 255
-0.628688 -0.339383 1.134 0.9958 -0.0455972 -0.0793901 0 0 0 255
-0.624034 -0.271231 1.185 0.985573 0.0584081 -0.158851 0 0 0 255
-0.628798 -0.342688 1.138 0.991247 0.000148478 -0.132022 0 0 0 255
-0.630911 -0.379777 1.123 0.874492 -0.178315 -0.451074 0 0 0 255
-0.626339 -0.238954 1.126 0.987763 0.0712248 0.138747 0 0 0 255
-0.626451 -0.217017 1.165 0.98398 0.149343 -0.0973663 0 0 0 255
-0.626229 -0.271231 1.185 0.985521 0.0583061 -0.159211 0 0 0 255
-0.628851 -0.258642 1.112 0.997805 0.0300301 0.0590228 0 0 0 255
-0.626587 -0.213343 1.134 0.993882 -0.0857246 -0.0696442 0 0 0 255
-0.626587 -0.215444 1.134 0.993538 -0.0819246 -0.078556 0 0 0 255
-0.632992 -0.373536 1.123 0.960424 -0.1674 -0.222629 0 0 0 255
-0.628542 -0.261771 1.153 0.991967 0.0870677 0.0917598 0 0 0 255
-0.622484 -0.341864 1.108 0.973003 -0.215549 -0.0824877 0 0 0 255
-0.626587 -0.375094 1.134 0.993499 0.025788 -0.110878 0 0 0 255
-0.626436 -0.243748 1.169 0.993576 -0.109568 -0.0282945 0 0 0 255
-0.620799 -0.332751 1.105 0.989746 -0.0859715 0.114068 0 0 0 255
-0.630548 -0.300649 1.115 0.997444 -0.0044271 -0.0713222 0 0 0 255
-0.637152 -0.421382 1.123 0.767857 -0.0947481 -0.633577 0 0 0 255
-0.626589 -0.317234 1.108 0.985595 0.152907 0.0722568 0 0 0 255
-0.628543 -0.190908 1.177 0.997789 0.0528193 -0.0403305 0 0 0 255
-0.628851 -0.219504 1.112 0.993946 0.0889187 0.0645343 0 0 0 255
-0.626407 -0.281522 1.173 0.998585 -0.00388802 -0.0530381 0 0 0 255
-0.62849 -0.241707 1.149 0.999922 0.00971738 0.00784664 0 0 0 255
-0.628851 -0.157707 1.112 0.99239 0.114408 0.045535 0 0 0 255
-0.628491 -0.270315 1.181 0.986872 0.0519137 -0.152934 0 0 0 255
-0.624116 -0.287817 1.181 0.988966 0.044245 -0.14138 0 0 0 255
-0.626436 -0.219928 1.169 0.994637 0.102102 -0.016533 0 0 0 255
-0.623938 -0.263336 1.189 0.987086 0.0731614 -0.142509 0 0 0 255
-0.626589 -0.192032 1.108 0.995357 -0.00549198 -0.0961008 0 0 0 255
-0.626406 -0.270314 1.153 0.990855 0.110896 0.0768674 0 0 0 255
-0.630723 -0.209097 1.157 0.997917 0.0495324 0.0413386 0 0 0 255
-0.626302 -0.202686 1.145 0.993362 0.0620931 0.0968318 0 0 0 255
-0.628543 -0.20399 1.177 0.99418 0.0693097 -0.0824747 0 0 0 255
-0.628491 -0.255001 1.181 0.990152 0.060594 -0.126204 0 0 0 255
-0.630911 -0.377696 1.123 0.911936 -0.178915 -0.369271 0 0 0 255
-0.62675 -0.371456 1.123 0.963898 -0.174897 -0.200777 0 0 0 255
-0.626302 -0.370248 1.145 0.999051 -0.0249002 0.0357414 0 0 0 255
-0.624487 -0.349886 1.134 0.998448 0.039022 -0.0397254 0 0 0 255
-0.626228 -0.216774 1.141 0.998384 -0.0528761 0.0208173 0 0 0 255
-0.626228 -0.225228 1.141 0.998033 -0.0491099 -0.0389619 0 0 0 255
-0.62858 -0.292386 1.173 0.991399 0.0183304 -0.129584 0 0 0 255
-0.622104 -0.346 1.149 0.981245 -0.10093 -0.164228 0 0 0 255
-0.620591 -0.266281 1.101 0.99731 0.0282808 0.0676222 0 0 0 255
-0.628543 -0.195269 1.177 0.996352 0.057292 -0.0632435 0 0 0 255
-0.628425 -0.378705 1.126 0.906512 -0.145225 -0.396417 0 0 0 255
-0.630455 -0.170274 1.141 0.991618 0.0874567 0.095106 0 0 0 255
-0.624893 -0.265202 1.105 0.994388 0.0204597 0.103799 0 0 0 255
-0.626589 -0.311077 1.108 0.984539 0.174684 0.0129832 0 0 0 255
-0.626689 -0.346904 1.138 0.995325 0.0481137 -0.0837415 0 0 0 255
-0.624518 -0.247833 1.119 0.997008 0.0497558 0.0591594 0 0 0 255
-0.626141 -0.192855 1.189 0.993867 0.109108 0.0179797 0 0 0 255
-0.62849 -0.301303 1.149 0.991593 -0.0140364 0.128636 0 0 0 255
-0.628543 -0.258498 1.177 0.989147 0.0819301 -0.121967 0 0 0 255
-0.624351 -0.232489 1.115 0.994624 0.0753382 0.0710412 0 0 0 255
-0.624253 -0.209752 1.126 0.990234 -0.116912 -0.0759481 0 0 0 255
-0.630768 -0.25241 1.169 0.999649 0.0192504 0.0181843 0 0 0 255
-0.622 -0.322455 1.141 0.998459 0.053252 -0.015607 0 0 0 255
-0.622631 -0.331546 1.101 0.992778 -0.0702871 0.0972156 0 0 0 255
-0.628602 -0.202604 1.169 0.997609 0.0293282 -0.0625859 0 0 0 255
-0.628609 -0.214859 1.165 0.985847 0.143228 -0.0871341 0 0 0 255
-0.628542 -0.201967 1.153 0.997593 0.0181817 0.0669113 0 0 0 255
-0.624731 -0.196845 1.112 0.989221 -0.0840668 -0.119894 0 0 0 255
-0.630737 -0.380497 1.119 0.923465 -0.213132 -0.319041 0 0 0 255
-0.622 -0.326682 1.141 0.996161 -0.0274647 -0.0831201 0 0 0 255
-0.62675 -0.227916 1.123 0.988125 0.126939 0.0865818 0 0 0 255
-0.634683 -0.42668 1.126 0.814886 -0.102678 -0.570454 0 0 0 255
-0.630737 -0.210521 1.119 0.995711 -0.0823686 -0.0421368 0 0 0 255
-0.620799 -0.338891 1.105 0.977465 -0.191455 -0.0889215 0 0 0 255
-0.628579 -0.198381 1.157 0.999733 -0.00850949 0.0214943 0 0 0 255
-0.628602 -0.263238 1.169 0.996999 0.0752299 0.0182587 0 0 0 255
-0.62467 -0.32777 1.123 0.98991 -0.0142748 0.140977 0 0 0 255
-0.632992 -0.388098 1.123 0.80872 -0.168768 -0.563462 0 0 0 255
-0.628425 -0.21601 1.126 0.996244 -0.0671941 -0.0546186 0 0 0 255
-0.630619 -0.173596 1.149 0.996317 0.0650306 0.0558937 0 0 0 255
-0.624181 -0.342675 1.145 0.969123 -0.105024 -0.223093 0 0 0 255
-0.626417 -0.366744 1.115 0.977889 -0.206416 -0.0335461 0 0 0 255
-0.628542 -0.193423 1.153 0.998417 0.0561652 -0.00313559 0 0 0 255
-0.624293 -0.326977 1.157 0.990058 0.105114 0.0934689 0 0 0 255
-0.622 -0.324569 1.141 0.998667 0.0127306 -0.0500149 0 0 0 255
-0.626451 -0.319505 1.161 0.988139 0.147867 0.041421 0 0 0 255
-0.626339 -0.270242 1.126 0.993158 -0.115802 -0.0150701 0 0 0 255
-0.628542 -0.240412 1.153 0.999597 -0.0245454 0.014276 0 0 0 255
-0.626339 -0.218096 1.126 0.999778 -0.0105022 -0.018243 0 0 0 255
-0.628851 -0.384296 1.112 0.987249 -0.154898 -0.036681 0 0 0 255
-0.624518 -0.18772 1.119 0.997999 0.0528467 -0.034708 0 0 0 255
-0.630619 -0.188495 1.149 0.996755 0.0804247 0.00338812 0 0 0 255
-0.62259 -0.306967 1.123 0.994555 0.0887595 -0.0546171 0 0 0 255
-0.628425 -0.382877 1.126 0.889675 -0.153079 -0.43017 0 0 0 255
-0.626436 -0.310879 1.169 0.993669 0.092944 -0.0631151 0 0 0 255
-0.62849 -0.256606 1.149 0.993289 0.0785535 0.0848914 0 0 0 255
-0.628425 -0.272328 1.126 0.996582 -0.0825412 -0.0034447 0 0 0 255
-0.624537 -0.245397 1.108 0.999749 0.0213426 -0.00679197 0 0 0 255
-0.624487 -0.276363 1.134 0.979162 0.0163354 -0.202421 0 0 0 255
-0.626471 -0.197938 1.13 0.996729 -0.0110379 0.0800539 0 0 0 255
-0.624233 -0.350257 1.149 0.979747 -0.0994461 -0.173798 0 0 0 255
-0.632597 -0.395392 1.126 0.830596 -0.183873 -0.525643 0 0 0 255
-0.626436 -0.237252 1.169 0.991955 -0.120187 -0.0397604 0 0 0 255
-0.624518 -0.297582 1.119 0.998351 -0.0187461 -0.0542555 0 0 0 255
-0.624487 -0.26586 1.134 0.998739 -0.00563182 -0.0498781 0 0 0 255
-0.624518 -0.301728 1.119 0.997708 0.0333205 -0.0588957 0 0 0 255
-0.628798 -0.23096 1.138 0.999967 -0.00580029 0.00569086 0 0 0 255
-0.624518 -0.241614 1.119 0.99544 0.0439688 0.0846466 0 0 0 255
-0.626229 -0.205377 1.185 0.997921 0.036184 -0.053342 0 0 0 255
-0.622484 -0.288499 1.108 0.996676 -0.0766751 0.0275319 0 0 0 255
-0.622484 -0.245397 1.108 0.999721 0.0194472 -0.0133917 0 0 0 255
-0.634683 -0.424594 1.126 0.80965 -0.100438 -0.578256 0 0 0 255
-0.618551 -0.333586 1.101 0.991823 -0.0979182 0.0818543 0 0 0 255
-0.626406 -0.24682 1.153 0.998892 0.0120856 0.0454908 0 0 0 255
-0.626689 -0.241501 1.138 0.997147 0.0569938 0.0495021 0 0 0 255
-0.626228 -0.248478 1.141 0.993498 0.0797712 0.0812255 0 0 0 255
-0.624487 -0.29737 1.134 0.998415 0.00666477 0.0558815 0 0 0 255
-0.624293 -0.32269 1.157 0.983543 0.146834 0.10527 0 0 0 255
-0.626591 -0.301728 1.119 0.996544 0.0435409 -0.0707418 0 0 0 255
-0.622631 -0.268321 1.101 0.994235 0.0246918 0.104341 0 0 0 255
-0.62467 -0.192551 1.123 0.999928 0.0107507 0.00536325 0 0 0 255
-0.626591 -0.276853 1.119 0.990455 0.0385468 0.132337 0 0 0 255
-0.62858 -0.196778 1.173 0.99812 0.0526499 -0.0313713 0 0 0 255
-0.626689 -0.239393 1.138 0.99827 0.0445912 0.0383189 0 0 0 255
-0.630767 -0.212701 1.165 0.990647 0.111882 -0.0781056 0 0 0 255
-0.622 -0.278069 1.141 0.988966 0.0518666 -0.138769 0 0 0 255
-0.620611 -0.3122 1.112 0.98452 0.175265 -0.00164924 0 0 0 255
-0.628579 -0.299114 1.157 0.999531 -0.00975502 0.02901 0 0 0 255
-0.626339 -0.362019 1.126 0.988235 -0.150805 -0.0254765 0 0 0 255
-0.626339 -0.36619 1.126 0.983911 -0.163107 -0.0729081 0 0 0 255
-0.624351 -0.187049 1.115 0.997159 0.0523317 -0.054181 0 0 0 255
-0.626228 -0.201978 1.141 0.994048 0.0605967 0.0905382 0 0 0 255
-0.624351 -0.226292 1.115 0.987448 0.141358 0.0704643 0 0 0 255
-0.626302 -0.37449 1.145 0.999344 -0.0273267 0.0237643 0 0 0 255
-0.626302 -0.376612 1.145 0.999433 -0.0294999 0.0162366 0 0 0 255
-0.626417 -0.364678 1.115 0.975144 -0.210563 -0.0689672 0 0 0 255
-0.632751 -0.407263 1.13 0.821321 -0.137897 -0.553549 0 0 0 255
-0.620799 -0.330704 1.105 0.990283 -0.0545916 0.127901 0 0 0 255
-0.628491 -0.230936 1.181 0.999276 0.0361729 0.0118167 0 0 0 255
-0.630723 -0.186548 1.177 0.998498 0.0529162 -0.0141764 0 0 0 255
-0.626471 -0.384237 1.13 0.92117 -0.141521 -0.362516 0 0 0 255
-0.626302 -0.368127 1.145 0.998408 -0.0295291 0.048046 0 0 0 255
-0.630678 -0.180608 1.153 0.996773 0.0769618 0.0228038 0 0 0 255
-0.624181 -0.338433 1.145 0.9636 -0.121653 -0.238067 0 0 0 255
-0.622149 -0.346266 1.157 0.993414 -0.083968 -0.0779589 0 0 0 255
-0.628491 -0.259377 1.181 0.987754 0.083442 -0.13183 0 0 0 255
-0.635072 -0.373536 1.123 0.949895 -0.175529 -0.258629 0 0 0 255
-0.626363 -0.284662 1.177 0.994494 0.0241986 -0.101958 0 0 0 255
-0.628491 -0.224373 1.181 0.999486 0.016853 0.0272669 0 0 0 255
-0.636769 -0.414165 1.126 0.770424 -0.0948156 -0.630442 0 0 0 255
-0.628425 -0.276499 1.126 0.999439 0.030653 -0.0134689 0 0 0 255
-0.626689 -0.313175 1.138 0.993142 0.0580954 0.101461 0 0 0 255
-0.628564 -0.40517 1.13 0.826473 -0.182899 -0.532438 0 0 0 255
-0.628564 -0.407263 1.13 0.824943 -0.155095 -0.54352 0 0 0 255
-0.624034 -0.264646 1.185 0.987259 0.0879754 -0.132592 0 0 0 255
-0.620432 -0.313129 1.108 0.976481 0.214985 -0.0162967 0 0 0 255
-0.626363 -0.195269 1.177 0.996152 0.0605482 -0.0633592 0 0 0 255
-0.626363 -0.197449 1.177 0.994026 0.0741288 -0.0801062 0 0 0 255
-0.626451 -0.223491 1.165 0.995413 0.0621624 -0.0727301 0 0 0 255
-0.628579 -0.196238 1.157 0.999941 -0.000828275 0.0108629 0 0 0 255
-0.624377 -0.32144 1.13 0.998758 -0.0493845 -0.00655164 0 0 0 255
-0.624114 -0.265387 1.141 0.994957 0.0790583 0.0617287 0 0 0 255
-0.626037 -0.215603 1.193 0.998216 -0.0275239 0.052974 0 0 0 255
-0.624893 -0.340938 1.105 0.957056 -0.229789 -0.176752 0 0 0 255
-0.624487 -0.320477 1.134 0.99899 -0.0226852 -0.0387911 0 0 0 255
-0.630657 -0.407263 1.13 0.822187 -0.147022 -0.549902 0 0 0 255
-0.626471 -0.269108 1.13 0.99442 -0.0703281 -0.0786349 0 0 0 255
-0.626229 -0.25806 1.185 0.988564 0.0622994 -0.137331 0 0 0 255
-0.628543 -0.20181 1.177 0.993834 0.0771663 -0.079623 0 0 0 255
-0.635072 -0.427623 1.123 0.779569 -0.097967 -0.618606 0 0 0 255
-0.626339 -0.201409 1.126 0.990985 -0.133279 -0.0136326 0 0 0 255
-0.624518 -0.23125 1.119 0.990601 0.0887087 0.104118 0 0 0 255
-0.624518 -0.310019 1.119 0.992248 0.107673 -0.0620517 0 0 0 255
-0.626407 -0.275003 1.173 0.99877 -0.0151197 -0.0472307 0 0 0 255
-0.62467 -0.198792 1.123 0.993304 -0.107847 -0.0414284 0 0 0 255
-0.626591 -0.365987 1.119 0.969949 -0.221136 -0.10148 0 0 0 255
-0.626689 -0.27523 1.138 0.973289 0.0510635 -0.223832 0 0 0 255
-0.628533 -0.219456 1.202 0.998931 0.0183536 0.0424384 0 0 0 255
-0.622284 -0.317253 1.13 0.999136 -0.0279921 0.0307081 0 0 0 255
-0.626451 -0.287244 1.161 0.994168 -0.0506756 0.095199 0 0 0 255
-0.626587 -0.270061 1.134 0.991671 -0.0386456 -0.12286 0 0 0 255
-0.62858 -0.203297 1.173 0.993775 0.0667367 -0.0892089 0 0 0 255
-0.62858 -0.207643 1.173 0.994397 0.0560153 -0.0896439 0 0 0 255
-0.630678 -0.176336 1.153 0.99735 0.0679483 0.0260154 0 0 0 255
-0.624581 -0.327932 1.138 0.985531 -0.0990903 -0.137513 0 0 0 255
-0.624731 -0.353398 1.112 0.982032 -0.174013 -0.0730308 0 0 0 255
-0.626791 -0.262762 1.112 0.993791 0.00211183 0.111243 0 0 0 255
-0.626436 -0.215597 1.169 0.991557 0.116061 -0.0578378 0 0 0 255
-0.626037 -0.213393 1.193 0.998069 -0.0326855 0.0528182 0 0 0 255
-0.626471 -0.32144 1.13 0.998837 -0.0475217 0.00811629 0 0 0 255
-0.626228 -0.240024 1.141 0.99838 0.0339433 0.0456653 0 0 0 255
-0.628564 -0.273295 1.13 0.987489 -0.0321036 -0.154384 0 0 0 255
-0.622473 -0.321607 1.138 0.999624 0.0205594 -0.0181149 0 0 0 255
-0.628602 -0.258907 1.169 0.997679 0.0651161 0.0199353 0 0 0 255
-0.628602 -0.261072 1.169 0.996022 0.0866551 0.0207556 0 0 0 255
-0.626587 -0.217544 1.134 0.994099 -0.0735562 -0.0797257 0 0 0 255
-0.622 -0.328796 1.141 0.987734 -0.0815606 -0.133151 0 0 0 255
-0.626339 -0.37662 1.126 0.935489 -0.137836 -0.325364 0 0 0 255
-0.628579 -0.245533 1.157 0.999215 -0.017309 0.0356202 0 0 0 255
-0.624114 -0.349932 1.141 0.997557 0.00055615 -0.0698543 0 0 0 255
-0.62849 -0.194881 1.149 0.996259 0.0842743 0.0191167 0 0 0 255
-0.626436 -0.224259 1.169 0.999606 0.0278493 0.00351321 0 0 0 255
-0.626689 -0.289986 1.138 0.999372 -0.00713136 -0.0346996 0 0 0 255
-0.622445 -0.254052 1.119 0.999107 0.0419391 0.00506437 0 0 0 255
-0.626587 -0.337282 1.134 0.987149 -0.113603 -0.112388 0 0 0 255
-0.626451 -0.190464 1.161 0.99884 0.0456618 -0.0152714 0 0 0 255
-0.628602 -0.25241 1.169 0.999644 0.0175565 0.0201085 0 0 0 255
-0.628564 -0.168632 1.13 0.985094 0.140369 0.0994347 0 0 0 255
-0.62849 -0.23745 1.149 0.999873 -0.00976652 -0.0126096 0 0 0 255
-0.628543 -0.2694 1.177 0.991859 0.0401721 -0.120835 0 0 0 255
-0.622 -0.273842 1.141 0.99049 0.09048 -0.10365 0 0 0 255
-0.628564 -0.172819 1.13 0.985347 0.13063 0.109671 0 0 0 255
-0.636937 -0.413543 1.13 0.813245 -0.102146 -0.572887 0 0 0 255
-0.626406 -0.268178 1.153 0.990162 0.120989 0.0702835 0 0 0 255
-0.626689 -0.228852 1.138 0.999885 -0.0148018 -0.00325962 0 0 0 255
-0.626141 -0.19726 1.189 0.99525 0.0954268 0.0192787 0 0 0 255
-0.626417 -0.178787 1.115 0.993436 0.11064 -0.0290403 0 0 0 255
-0.626141 -0.250121 1.189 0.992676 0.00274734 -0.120773 0 0 0 255
-0.628798 -0.39539 1.138 0.922605 -0.151074 -0.354932 0 0 0 255
-0.626589 -0.348022 1.108 0.979731 -0.198768 -0.0248494 0 0 0 255
-0.626417 -0.220096 1.115 0.994244 0.0937387 0.0518925 0 0 0 255
-0.624731 -0.345158 1.112 0.978612 -0.204228 -0.0246672 0 0 0 255
-0.622134 -0.338662 1.153 0.99501 -0.0501933 -0.0862288 0 0 0 255
-0.628542 -0.242548 1.153 0.999645 -0.0171062 0.0204353 0 0 0 255
-0.626141 -0.219285 1.189 0.999061 -0.0179595 0.0394177 0 0 0 255
-0.622484 -0.315182 1.108 0.979973 0.199061 0.00522019 0 0 0 255
-0.624114 -0.290751 1.141 0.999194 -0.0389459 -0.00968897 0 0 0 255
-0.628343 -0.230298 1.189 0.998921 0.0428362 0.0179529 0 0 0 255
-0.624233 -0.280019 1.149 0.998111 0.0278529 0.0547516 0 0 0 255
-0.628542 -0.234005 1.153 0.998752 -0.0467884 -0.0175 0 0 0 255
-0.620591 -0.333586 1.101 0.991219 -0.0968543 0.0900217 0 0 0 255
-0.628602 -0.214121 1.161 0.992103 0.120609 -0.0344134 0 0 0 255
-0.62694 -0.37983 1.105 0.982804 -0.184414 0.00938922 0 0 0 255
-0.624233 -0.275762 1.149 0.992647 0.112366 0.0450079 0 0 0 255
-0.628798 -0.174042 1.138 0.989099 0.090444 0.116202 0 0 0 255
-0.626451 -0.285094 1.161 0.994148 -0.0394043 0.100579 0 0 0 255
-0.624253 -0.372448 1.126 0.97542 -0.113391 -0.188938 0 0 0 255
-0.626228 -0.250592 1.141 0.992923 0.0804202 0.0873815 0 0 0 255
-0.626791 -0.174186 1.112 0.993994 0.108923 -0.0105427 0 0 0 255
-0.624518 -0.189792 1.119 0.999328 0.0248721 -0.0269201 0 0 0 255
-0.624114 -0.381637 1.141 0.9993 -0.0326873 -0.018201 0 0 0 255
-0.626302 -0.298133 1.145 0.991808 -0.0619615 0.111704 0 0 0 255
-0.626587 -0.347785 1.134 0.996778 0.0639855 -0.0483744 0 0 0 255
-0.628423 -0.368127 1.145 0.998823 -0.0250269 0.0415407 0 0 0 255
-0.628247 -0.228863 1.193 0.9991 0.0368901 0.0209565 0 0 0 255
-0.62467 -0.339704 1.101 0.972859 -0.204722 -0.107863 0 0 0 255
-0.628342 -0.23791 1.141 0.998947 0.0279521 0.0363859 0 0 0 255
-0.626587 -0.286866 1.134 0.988487 0.0817443 -0.127326 0 0 0 255
-0.624487 -0.270061 1.134 0.990885 -0.036575 -0.129653 0 0 0 255
-0.624487 -0.314175 1.134 0.997788 0.0185133 0.0638455 0 0 0 255
-0.62467 -0.380495 1.101 0.983586 -0.179536 0.0180261 0 0 0 255
-0.628609 -0.238598 1.165 0.992871 -0.105405 -0.0556535 0 0 0 255
-0.628542 -0.23614 1.153 0.999145 -0.0381533 -0.0159515 0 0 0 255
-0.628425 -0.190011 1.185 0.99518 0.0963395 -0.0182968 0 0 0 255
-0.624537 -0.319287 1.108 0.985926 0.15012 0.0735791 0 0 0 255
-0.628425 -0.395392 1.126 0.845598 -0.177677 -0.503384 0 0 0 255
-0.626451 -0.311973 1.165 0.993914 0.0976339 -0.0510058 0 0 0 255
-0.626436 -0.263238 1.169 0.997241 0.0735124 0.0102974 0 0 0 255
-0.62467 -0.32985 1.123 0.986204 -0.0592786 0.154559 0 0 0 255
-0.622286 -0.354351 1.115 0.985975 -0.15063 -0.0718587 0 0 0 255
-0.626037 -0.220023 1.193 0.999003 -0.00165897 0.0446161 0 0 0 255
-0.62467 -0.18631 1.123 0.997079 0.0730873 0.0221624 0 0 0 255
-0.628391 -0.213485 1.206 0.997741 0.00175036 0.0671573 0 0 0 255
-0.622846 -0.273389 1.105 0.987756 0.00702563 0.15585 0 0 0 255
-0.624537 -0.228977 1.108 0.991683 0.112491 0.0625358 0 0 0 255
-0.628542 -0.191287 1.153 0.997389 0.0708654 -0.0138745 0 0 0 255
-0.626361 -0.367285 1.149 0.999119 -0.0419657 -0.000653902 0 0 0 255
-0.626587 -0.372993 1.134 0.995227 0.0024837 -0.0975597 0 0 0 255
-0.626689 -0.273122 1.138 0.988477 0.0439457 -0.144853 0 0 0 255
-0.626451 -0.313053 1.161 0.993509 0.113718 0.00294235 0 0 0 255
-0.628564 -0.396797 1.13 0.875036 -0.175916 -0.45096 0 0 0 255
-0.628391 -0.202314 1.206 0.998124 0.0169673 0.0588209 0 0 0 255
-0.626339 -0.18055 1.126 0.991171 0.118966 0.0585355 0 0 0 255
-0.622631 -0.329507 1.101 0.995302 -0.0409652 0.0877276 0 0 0 255
-0.626436 -0.273395 1.157 0.986372 0.0856624 0.14047 0 0 0 255
-0.624487 -0.255356 1.134 0.993554 0.0620581 0.0948642 0 0 0 255
-0.626363 -0.295564 1.177 0.987379 0.0286412 -0.155767 0 0 0 255
-0.63076 -0.19719 1.202 0.997535 0.0548738 0.0437245 0 0 0 255
-0.626436 -0.266965 1.157 0.99219 0.0912566 0.0850355 0 0 0 255
-0.626471 -0.40517 1.13 0.823438 -0.181425 -0.537619 0 0 0 255
-0.624114 -0.273842 1.141 0.989233 0.106456 -0.100421 0 0 0 255
-0.626587 -0.219645 1.134 0.994418 -0.0753354 -0.073877 0 0 0 255
-0.626417 -0.176721 1.115 0.993373 0.114211 -0.0129028 0 0 0 255
-0.630625 -0.197846 1.206 0.998222 0.0371904 0.0465799 0 0 0 255
-0.628482 -0.160197 1.115 0.991958 0.117966 0.0458544 0 0 0 255
-0.628533 -0.230589 1.202 0.99906 0.0401008 0.0164808 0 0 0 255
-0.628602 -0.245914 1.169 0.99692 -0.0773059 -0.0131995 0 0 0 255
-0.626591 -0.200157 1.119 0.982181 -0.162502 -0.0944151 0 0 0 255
-0.626228 -0.385864 1.141 0.99247 -0.052026 -0.110887 0 0 0 255
