ply
format ascii 1.0
element vertex 964
property float x
property float y
property float z
property float normal_x
property float normal_y
property float normal_z
property uchar red
property uchar green
property uchar blue
property uchar alpha
end_header
-0.0105783 -0.0145269 0.984 0 0 0 214 225 228 255
0.0364426 -0.00596304 0.97 0 0 0 180 193 140 255
0.0364426 -0.00763448 0.97 0 0 0 186 201 180 255
0.0364426 -0.00930591 0.97 0 0 0 214 223 220 255
0.0365553 -0.0110113 0.973 0 0 0 233 239 242 255
0.0367431 -0.0144383 0.978 0 0 0 224 232 239 255
0.0368559 -0.016173 0.981 0 0 0 225 236 239 255
0.0369686 -0.017918 0.984 0 0 0 225 235 241 255
0.0371564 -0.0197133 0.989 0 0 0 220 231 243 255
0.0371564 -0.0214174 0.989 0 0 0 224 233 246 255
0.0372691 -0.0249011 0.992 0 0 0 224 237 246 255
0.0372691 -0.0266104 0.992 0 0 0 226 235 248 255
0.0373818 -0.0284054 0.995 0 0 0 209 221 233 255
0.0374945 -0.0302108 0.998 0 0 0 210 223 232 255
0.0376073 -0.0320264 1.001 0 0 0 223 236 243 255
0.03772 -0.0338524 1.004 0 0 0 217 230 237 255
0.0398062 -0.037647 1.013 0 0 0 205 219 235 255
0.0398062 -0.0393925 1.013 0 0 0 213 224 236 255
0.0399241 -0.0412599 1.016 0 0 0 215 226 241 255
0.0347687 -0.00596304 0.97 0 0 0 174 185 133 255
0.0347687 -0.00930591 0.97 0 0 0 214 223 220 255
0.0350554 -0.0144383 0.978 0 0 0 221 231 241 255
0.0351629 -0.016173 0.981 0 0 0 227 237 247 255
0.0352705 -0.017918 0.984 0 0 0 226 236 244 255
0.0354497 -0.0197133 0.989 0 0 0 219 229 237 255
0.0354497 -0.0214174 0.989 0 0 0 224 234 240 255
0.0355572 -0.0231917 0.992 0 0 0 230 238 246 255
0.0355572 -0.0249011 0.992 0 0 0 226 236 246 255
0.0355572 -0.0266104 0.992 0 0 0 223 235 245 255
0.0356648 -0.0284054 0.995 0 0 0 209 221 231 255
0.0379454 -0.0357951 1.01 0 0 0 202 221 233 255
0.0363099 -0.037647 1.013 0 0 0 215 230 236 255
0.0363099 -0.0393925 1.013 0 0 0 217 230 239 255
0.0364175 -0.0412599 1.016 0 0 0 216 228 240 255
0.0330947 -0.00596304 0.97 0 0 0 177 187 136 255
0.0330947 -0.00930591 0.97 0 0 0 222 231 228 255
0.0331971 -0.0110113 0.973 0 0 0 228 234 239 255
0.0333677 -0.0144383 0.978 0 0 0 216 225 236 255
0.0335724 -0.017918 0.984 0 0 0 227 237 245 255
0.0336747 -0.0196734 0.987 0 0 0 225 235 243 255
0.0357723 -0.0302108 0.998 0 0 0 210 223 228 255
0.0358798 -0.0320264 1.001 0 0 0 219 229 237 255
0.0359874 -0.0338524 1.004 0 0 0 216 229 236 255
0.0345618 -0.037647 1.013 0 0 0 215 230 236 255
0.0345618 -0.0393925 1.013 0 0 0 215 227 237 255
0.0346642 -0.0412599 1.016 0 0 0 216 228 240 255
0.0347665 -0.0431376 1.019 0 0 0 214 226 236 255
0.0348689 -0.0467866 1.022 0 0 0 218 232 243 255
0.0315179 -0.0110113 0.973 0 0 0 228 236 242 255
0.0315827 -0.012714 0.975 0 0 0 225 235 245 255
0.0316799 -0.0144383 0.978 0 0 0 218 227 240 255
0.033743 -0.0214174 0.989 0 0 0 228 239 244 255
0.0338453 -0.0231917 0.992 0 0 0 230 238 246 255
0.0338453 -0.0249011 0.992 0 0 0 225 235 245 255
0.0339477 -0.0266909 0.995 0 0 0 222 234 244 255
0.0339477 -0.0284054 0.995 0 0 0 209 221 231 255
0.0323278 -0.0302108 0.998 0 0 0 208 219 234 255
0.0324249 -0.0320264 1.001 0 0 0 221 228 237 255
0.0325221 -0.0338524 1.004 0 0 0 219 231 238 255
0.0328136 -0.037647 1.013 0 0 0 215 229 240 255
0.0329108 -0.0395092 1.016 0 0 0 217 231 242 255
0.0329108 -0.0412599 1.016 0 0 0 221 233 245 255
0.033008 -0.0431376 1.019 0 0 0 213 224 238 255
0.0331052 -0.0467866 1.022 0 0 0 219 231 238 255
0.0331052 -0.0485477 1.022 0 0 0 232 236 241 255
0.0317771 -0.016173 0.981 0 0 0 217 229 241 255
0.0318743 -0.017918 0.984 0 0 0 226 236 246 255
0.0319714 -0.0196734 0.987 0 0 0 226 236 244 255
0.0304215 -0.0231917 0.992 0 0 0 233 241 248 255
0.0304215 -0.0249011 0.992 0 0 0 222 234 246 255
0.0305135 -0.0266909 0.995 0 0 0 222 232 245 255
0.0306055 -0.0284911 0.998 0 0 0 203 217 230 255
0.0306975 -0.0303016 1.001 0 0 0 210 222 236 255
0.0306975 -0.0320264 1.001 0 0 0 225 233 242 255
0.0307895 -0.0338524 1.004 0 0 0 219 231 238 255
0.0310655 -0.037647 1.013 0 0 0 216 230 241 255
0.0311575 -0.0395092 1.016 0 0 0 218 232 243 255
0.0311575 -0.0412599 1.016 0 0 0 221 233 245 255
0.0313415 -0.0450256 1.022 0 0 0 212 223 237 255
0.0313415 -0.0467866 1.022 0 0 0 219 231 238 255
0.0313415 -0.0485477 1.022 0 0 0 231 234 240 255
0.0281597 -0.0093347 0.973 0 0 0 211 219 209 255
0.0298388 -0.0110113 0.973 0 0 0 225 233 240 255
0.0299922 -0.0144383 0.978 0 0 0 218 227 240 255
0.0284781 -0.017918 0.984 0 0 0 220 231 243 255
0.0285649 -0.0196734 0.987 0 0 0 213 224 240 255
0.0286228 -0.0214174 0.989 0 0 0 220 230 240 255
0.0287096 -0.0231917 0.992 0 0 0 234 244 252 255
0.0287096 -0.0249011 0.992 0 0 0 225 242 250 255
0.0287964 -0.0266909 0.995 0 0 0 227 239 248 255
0.0288832 -0.0284911 0.998 0 0 0 207 219 229 255
0.0289701 -0.0320264 1.001 0 0 0 225 233 242 255
0.0290569 -0.0338524 1.004 0 0 0 219 231 238 255
0.0293174 -0.037647 1.013 0 0 0 216 228 238 255
0.0294042 -0.0395092 1.016 0 0 0 219 231 240 255
0.0294042 -0.0412599 1.016 0 0 0 219 231 240 255
0.0295778 -0.0450256 1.022 0 0 0 214 226 236 255
0.0295778 -0.0467866 1.022 0 0 0 218 227 240 255
0.0295778 -0.0485477 1.022 0 0 0 227 232 244 255
0.0263989 -0.00596304 0.97 0 0 0 177 184 143 255
0.026535 -0.0110339 0.975 0 0 0 231 240 244 255
0.0266167 -0.0144383 0.978 0 0 0 221 233 243 255
0.0266983 -0.0178634 0.981 0 0 0 219 230 242 255
0.0268616 -0.0196734 0.987 0 0 0 213 224 240 255
0.026916 -0.0214174 0.989 0 0 0 219 229 239 255
0.0269977 -0.0231917 0.992 0 0 0 226 236 244 255
0.0269977 -0.0249011 0.992 0 0 0 222 239 247 255
0.027161 -0.0284911 0.998 0 0 0 209 221 231 255
0.0273243 -0.0338524 1.004 0 0 0 217 230 237 255
0.0275692 -0.0359014 1.013 0 0 0 213 228 237 255
0.0275692 -0.037647 1.013 0 0 0 217 230 239 255
0.0277325 -0.0413817 1.019 0 0 0 217 230 239 255
0.0248015 -0.0093347 0.973 0 0 0 227 235 226 255
0.024725 -0.00596304 0.97 0 0 0 175 184 143 255
0.0248525 -0.0110339 0.975 0 0 0 232 241 243 255
0.0249289 -0.0144383 0.978 0 0 0 222 235 240 255
0.0250054 -0.0178634 0.981 0 0 0 220 232 239 255
0.0252093 -0.0214174 0.989 0 0 0 217 230 237 255
0.0252858 -0.0231917 0.992 0 0 0 221 234 237 255
0.0254387 -0.0284911 0.998 0 0 0 208 222 231 255
0.0255917 -0.0321224 1.004 0 0 0 219 231 238 255
0.0278141 -0.0432646 1.022 0 0 0 219 231 240 255
0.0278141 -0.0467866 1.022 0 0 0 216 225 238 255
0.0278141 -0.0485477 1.022 0 0 0 226 231 243 255
0.0261269 -0.0504564 1.025 0 0 0 231 232 211 255
0.0231224 -0.0093347 0.973 0 0 0 226 234 224 255
0.0230511 -0.00596304 0.97 0 0 0 174 183 142 255
0.0230511 -0.00763448 0.97 0 0 0 208 217 203 255
0.0231699 -0.0110339 0.975 0 0 0 231 240 242 255
0.0231699 -0.012714 0.975 0 0 0 227 238 243 255
0.0232412 -0.0144383 0.978 0 0 0 221 234 239 255
0.0233125 -0.0178634 0.981 0 0 0 222 235 242 255
0.0235026 -0.0214174 0.989 0 0 0 219 231 238 255
0.0237165 -0.0267714 0.998 0 0 0 224 237 244 255
0.0258211 -0.0359014 1.013 0 0 0 219 231 238 255
0.0258211 -0.037647 1.013 0 0 0 222 235 240 255
0.0258975 -0.0395092 1.016 0 0 0 220 230 240 255
0.025974 -0.0413817 1.019 0 0 0 220 229 242 255
0.0242868 -0.0432646 1.022 0 0 0 220 229 242 255
0.0242868 -0.0450256 1.022 0 0 0 217 230 239 255
0.0243581 -0.046924 1.025 0 0 0 215 227 237 255
0.0243581 -0.0486902 1.025 0 0 0 223 229 238 255
0.0243581 -0.0504564 1.025 0 0 0 226 227 207 255
0.0214432 -0.0093347 0.973 0 0 0 217 227 221 255
0.0213771 -0.00596304 0.97 0 0 0 168 178 134 255
0.0213771 -0.00763448 0.97 0 0 0 201 211 192 255
0.0214873 -0.0110339 0.975 0 0 0 227 238 241 255
0.0214873 -0.012714 0.975 0 0 0 224 237 246 255
0.0215534 -0.0144383 0.978 0 0 0 221 233 243 255
0.0216195 -0.016173 0.981 0 0 0 222 233 241 255
0.0216857 -0.017918 0.984 0 0 0 222 233 241 255
0.0237877 -0.0285767 1.001 0 0 0 204 219 227 255
0.0237877 -0.0303016 1.001 0 0 0 212 224 231 255
0.023859 -0.0321224 1.004 0 0 0 220 232 239 255
0.0223248 -0.0359014 1.013 0 0 0 220 232 241 255
0.0223248 -0.037647 1.013 0 0 0 228 236 242 255
0.0223909 -0.0395092 1.016 0 0 0 220 229 242 255
0.022457 -0.0413817 1.019 0 0 0 217 229 241 255
0.0225231 -0.0432646 1.022 0 0 0 220 230 240 255
0.0225892 -0.0451578 1.025 0 0 0 217 230 237 255
0.0225892 -0.046924 1.025 0 0 0 213 225 234 255
0.0225892 -0.0486902 1.025 0 0 0 222 229 238 255
0.0225892 -0.0504564 1.025 0 0 0 226 227 207 255
0.0197032 -0.00596304 0.97 0 0 0 171 180 136 255
0.0217959 -0.0214174 0.989 0 0 0 220 233 237 255
0.021862 -0.0231917 0.992 0 0 0 224 238 240 255
0.0219281 -0.0249764 0.995 0 0 0 224 240 248 255
0.0219942 -0.0267714 0.998 0 0 0 231 240 253 255
0.0203329 -0.0285767 1.001 0 0 0 210 222 236 255
0.0203938 -0.0303924 1.004 0 0 0 212 221 234 255
0.0203938 -0.0321224 1.004 0 0 0 216 228 238 255
0.0205766 -0.0359014 1.013 0 0 0 216 228 238 255
0.0206376 -0.0377585 1.016 0 0 0 226 235 241 255
0.0206985 -0.0396258 1.019 0 0 0 221 231 243 255
0.0207594 -0.0415035 1.022 0 0 0 221 233 245 255
0.0207594 -0.0432646 1.022 0 0 0 222 232 243 255
0.0208204 -0.0451578 1.025 0 0 0 219 231 238 255
0.0208204 -0.046924 1.025 0 0 0 212 224 233 255
0.0208813 -0.0488327 1.028 0 0 0 219 227 236 255
0.0208813 -0.0506041 1.028 0 0 0 224 225 204 255
0.0147268 -0.0110113 0.973 0 0 0 229 237 243 255
0.018085 -0.00765809 0.973 0 0 0 197 203 183 255
0.0198047 -0.0110339 0.975 0 0 0 227 238 241 255
0.0198657 -0.0127531 0.978 0 0 0 226 238 247 255
0.0198657 -0.0144383 0.978 0 0 0 221 233 243 255
0.0199266 -0.016173 0.981 0 0 0 222 233 241 255
0.0199876 -0.017918 0.984 0 0 0 222 233 241 255
0.0199876 -0.0196136 0.984 0 0 0 221 233 241 255
0.0183824 -0.0214174 0.989 0 0 0 223 236 243 255
0.0184382 -0.0231917 0.992 0 0 0 226 238 245 255
0.0184939 -0.0249764 0.995 0 0 0 229 242 249 255
0.0185497 -0.0267714 0.998 0 0 0 232 242 248 255
0.0186054 -0.0285767 1.001 0 0 0 216 225 236 255
0.0186054 -0.0303016 1.001 0 0 0 210 222 234 255
0.0186612 -0.0321224 1.004 0 0 0 220 232 241 255
0.0188285 -0.0359014 1.013 0 0 0 221 231 239 255
0.0188842 -0.0377585 1.016 0 0 0 230 239 240 255
0.0188842 -0.0395092 1.016 0 0 0 225 235 241 255
0.0189958 -0.0415035 1.022 0 0 0 225 235 241 255
0.0189958 -0.0432646 1.022 0 0 0 222 233 241 255
0.0190515 -0.0451578 1.025 0 0 0 222 233 239 255
0.0190515 -0.046924 1.025 0 0 0 214 226 234 255
0.0191073 -0.0488327 1.028 0 0 0 219 228 234 255
0.0191073 -0.0506041 1.028 0 0 0 214 220 195 255
0.0130477 -0.0110113 0.973 0 0 0 226 235 241 255
0.0164059 -0.00598148 0.973 0 0 0 173 178 133 255
0.0164396 -0.0110339 0.975 0 0 0 231 240 242 255
0.0164902 -0.0127531 0.978 0 0 0 227 237 245 255
0.0164902 -0.0144383 0.978 0 0 0 217 230 239 255
0.0165408 -0.016173 0.981 0 0 0 220 231 243 255
0.0165914 -0.017918 0.984 0 0 0 222 234 244 255
0.0166757 -0.0214174 0.989 0 0 0 221 233 241 255
0.0167262 -0.0231917 0.992 0 0 0 223 236 243 255
0.0167768 -0.0249764 0.995 0 0 0 226 238 245 255
0.0168274 -0.0267714 0.998 0 0 0 226 236 242 255
0.016878 -0.0285767 1.001 0 0 0 216 225 236 255
0.016878 -0.0303016 1.001 0 0 0 213 224 236 255
0.0169286 -0.0321224 1.004 0 0 0 220 232 241 255
0.0170803 -0.0359014 1.013 0 0 0 218 228 236 255
0.0171309 -0.0377585 1.016 0 0 0 228 236 238 255
0.0171309 -0.0395092 1.016 0 0 0 224 234 240 255
0.0172321 -0.0415035 1.022 0 0 0 222 233 239 255
0.0172321 -0.0432646 1.022 0 0 0 219 229 237 255
0.0172827 -0.0451578 1.025 0 0 0 219 229 235 255
0.0172827 -0.046924 1.025 0 0 0 215 228 235 255
0.0173333 -0.0488327 1.028 0 0 0 219 228 234 255
0.0173333 -0.0506041 1.028 0 0 0 210 217 192 255
0.0113685 -0.0110113 0.973 0 0 0 225 233 240 255
0.0147268 -0.00598148 0.973 0 0 0 172 177 128 255
0.0148024 -0.0127531 0.978 0 0 0 228 238 250 255
0.0148479 -0.0144826 0.981 0 0 0 222 232 245 255
0.0148479 -0.016173 0.981 0 0 0 221 231 241 255
0.0148933 -0.017918 0.984 0 0 0 224 233 246 255
0.0149689 -0.0214174 0.989 0 0 0 223 231 239 255
0.0150143 -0.0231917 0.992 0 0 0 222 234 235 255
0.0150597 -0.0249764 0.995 0 0 0 223 236 241 255
0.0151052 -0.0267714 0.998 0 0 0 225 235 243 255
0.0151506 -0.0285767 1.001 0 0 0 213 223 231 255
0.0151506 -0.0303016 1.001 0 0 0 209 223 225 255
0.015196 -0.0321224 1.004 0 0 0 222 233 241 255
0.0153776 -0.0377585 1.016 0 0 0 224 237 242 255
0.015423 -0.0396258 1.019 0 0 0 221 233 241 255
0.0154684 -0.0415035 1.022 0 0 0 221 233 241 255
0.0154684 -0.0432646 1.022 0 0 0 216 229 236 255
0.0155138 -0.0451578 1.025 0 0 0 215 228 235 255
0.0155592 -0.0488327 1.028 0 0 0 219 227 236 255
0.0155592 -0.0506041 1.028 0 0 0 210 217 190 255
0.0080103 -0.0110113 0.973 0 0 0 222 230 236 255
0.043559 -0.0466493 1.019 0 0 0 220 233 237 255
0.0131147 -0.0127531 0.978 0 0 0 228 238 250 255
0.0131549 -0.0144826 0.981 0 0 0 224 233 246 255
0.0131549 -0.016173 0.981 0 0 0 222 232 243 255
0.0132622 -0.0197133 0.989 0 0 0 223 235 249 255
0.0132622 -0.0214174 0.989 0 0 0 222 229 238 255
0.0133024 -0.0231917 0.992 0 0 0 221 233 233 255
0.0133427 -0.0249764 0.995 0 0 0 223 236 241 255
0.0133829 -0.0267714 0.998 0 0 0 225 235 243 255
0.0133829 -0.0284911 0.998 0 0 0 211 221 229 255
0.0134634 -0.0321224 1.004 0 0 0 227 237 245 255
0.013584 -0.037647 1.013 0 0 0 223 236 241 255
0.0136645 -0.0396258 1.019 0 0 0 220 232 239 255
0.0137047 -0.0415035 1.022 0 0 0 219 231 238 255
0.013745 -0.0433916 1.025 0 0 0 215 228 235 255
0.0418005 -0.0466493 1.019 0 0 0 215 228 233 255
0.011427 -0.0127531 0.978 0 0 0 227 236 249 255
0.011462 -0.0144826 0.981 0 0 0 219 234 243 255
0.0114971 -0.0162225 0.984 0 0 0 220 232 241 255
0.0115555 -0.0214174 0.989 0 0 0 221 231 239 255
0.0115905 -0.0231917 0.992 0 0 0 225 233 240 255
0.0115905 -0.0249011 0.992 0 0 0 226 236 244 255
0.0116606 -0.0267714 0.998 0 0 0 225 235 243 255
0.0116606 -0.0284911 0.998 0 0 0 212 222 230 255
0.0117307 -0.0338524 1.004 0 0 0 226 237 251 255
0.0118008 -0.0375355 1.01 0 0 0 226 236 242 255
0.011941 -0.0415035 1.022 0 0 0 220 230 240 255
0.0119761 -0.0433916 1.025 0 0 0 218 227 240 255
0.0120112 -0.0488327 1.028 0 0 0 210 218 227 255
0.0120112 -0.0506041 1.028 0 0 0 203 210 185 255
0.00982883 -0.0196734 0.987 0 0 0 224 232 241 255
0.00987862 -0.0249011 0.992 0 0 0 222 233 241 255
0.0102371 -0.0470613 1.028 0 0 0 221 231 243 255
0.0102371 -0.0506041 1.028 0 0 0 216 222 198 255
0.010267 -0.0525283 1.031 0 0 0 229 223 130 255
0.036525 -0.0466493 1.019 0 0 0 217 231 242 255
0.00968941 -0.00765809 0.973 0 0 0 189 195 175 255
0.00805146 -0.0127531 0.978 0 0 0 221 231 239 255
0.00976908 -0.0144826 0.981 0 0 0 216 230 239 255
0.00979896 -0.0162225 0.984 0 0 0 217 230 239 255
0.00982883 -0.0179727 0.987 0 0 0 224 232 241 255
0.00814202 -0.0197133 0.989 0 0 0 225 235 243 255
0.00984875 -0.0214174 0.989 0 0 0 218 228 236 255
0.00987862 -0.0231917 0.992 0 0 0 223 231 237 255
0.0099085 -0.0266909 0.995 0 0 0 225 235 243 255
0.00993837 -0.0284911 0.998 0 0 0 209 219 227 255
0.00824081 -0.0320264 1.001 0 0 0 167 243 220 255
0.00999812 -0.0338524 1.004 0 0 0 230 242 255 255
0.00826551 -0.0355825 1.004 0 0 0 195 237 250 255
0.00826551 -0.0407725 1.004 0 0 0 170 252 255 255
0.00848779 -0.0525283 1.031 0 0 0 207 236 185 255
0.00633118 -0.00765809 0.973 0 0 0 178 188 171 255
0.00633118 -0.0093347 0.973 0 0 0 202 208 213 255
0.00633118 -0.0110113 0.973 0 0 0 221 229 235 255
0.00636371 -0.0127531 0.978 0 0 0 220 230 238 255
0.00638323 -0.0144826 0.981 0 0 0 215 228 235 255
0.00640275 -0.0162225 0.984 0 0 0 218 228 236 255
0.00643529 -0.0197133 0.989 0 0 0 220 230 238 255
0.00645481 -0.0214824 0.992 0 0 0 220 232 239 255
0.00645481 -0.0231917 0.992 0 0 0 221 231 241 255
0.00647433 -0.0266909 0.995 0 0 0 222 236 236 255
0.00649385 -0.0284911 0.998 0 0 0 140 170 167 255
0.00651337 -0.0320264 1.001 0 0 0 0 58 35 255
0.00653289 -0.0338524 1.004 0 0 0 0 67 74 255
0.00653289 -0.0355825 1.004 0 0 0 35 76 89 255
0.00653289 -0.0407725 1.004 0 0 0 4 86 99 255
0.00653289 -0.0425026 1.004 0 0 0 52 78 74 255
0.00465206 -0.00598148 0.973 0 0 0 176 180 142 255
0.00466162 -0.0110339 0.975 0 0 0 223 232 233 255
0.00467597 -0.0127531 0.978 0 0 0 223 231 237 255
0.00469031 -0.0144826 0.981 0 0 0 218 228 236 255
0.00470465 -0.0162225 0.984 0 0 0 219 229 237 255
0.00472856 -0.0197133 0.989 0 0 0 220 232 241 255
0.0047429 -0.0214824 0.992 0 0 0 216 230 243 255
0.0047429 -0.0231917 0.992 0 0 0 219 228 243 255
0.00475725 -0.0266909 0.995 0 0 0 222 234 244 255
0.00477159 -0.0284911 0.998 0 0 0 143 167 175 255
0.00478593 -0.0320264 1.001 0 0 0 0 34 10 255
0.00480028 -0.0338524 1.004 0 0 0 0 19 5 255
0.00480028 -0.0355825 1.004 0 0 0 0 0 0 255
0.00480028 -0.0407725 1.004 0 0 0 0 17 0 255
0.00480028 -0.0425026 1.004 0 0 0 0 0 0 255
0.004719 -0.0485858 0.987 0 0 0 0 0 0 255
0.00297294 -0.00598148 0.973 0 0 0 176 180 142 255
0.00297905 -0.0110339 0.975 0 0 0 226 235 237 255
0.00298822 -0.0127531 0.978 0 0 0 224 232 239 255
0.00299739 -0.0144826 0.981 0 0 0 218 228 236 255
0.00301572 -0.0179727 0.987 0 0 0 220 230 238 255
0.00302183 -0.0197133 0.989 0 0 0 217 230 239 255
0.003031 -0.0214824 0.992 0 0 0 211 225 238 255
0.003031 -0.0231917 0.992 0 0 0 217 226 241 255
0.00304933 -0.0267714 0.998 0 0 0 224 237 246 255
0.00304933 -0.0284911 0.998 0 0 0 166 190 198 255
0.0030585 -0.0303016 1.001 0 0 0 59 119 181 255
0.0030585 -0.0320264 1.001 0 0 0 0 53 29 255
0.00306766 -0.0338524 1.004 0 0 0 0 65 51 255
0.00306766 -0.0355825 1.004 0 0 0 102 102 84 255
0.00306766 -0.0407725 1.004 0 0 0 94 131 112 255
0.00312266 -0.0432646 1.022 0 0 0 102 129 120 255
0.00313183 -0.0451578 1.025 0 0 0 94 131 132 255
0.00315016 -0.0507517 1.031 0 0 0 99 120 102 255
0.00129382 -0.00598148 0.973 0 0 0 174 178 140 255
0.00129648 -0.00935388 0.975 0 0 0 205 211 214 255
0.00130047 -0.0110679 0.978 0 0 0 222 230 234 255
0.00130047 -0.0127531 0.978 0 0 0 223 231 239 255
0.00130446 -0.0144826 0.981 0 0 0 218 228 236 255
0.00131244 -0.0179727 0.987 0 0 0 217 230 239 255
0.0013151 -0.0197133 0.989 0 0 0 215 229 238 255
0.00131909 -0.0214824 0.992 0 0 0 213 230 240 255
0.00131909 -0.0231917 0.992 0 0 0 217 231 244 255
0.00132308 -0.0249764 0.995 0 0 0 224 236 248 255
0.00132707 -0.0267714 0.998 0 0 0 226 238 245 255
0.00132707 -0.0284911 0.998 0 0 0 188 200 221 255
0.00133106 -0.0303016 1.001 0 0 0 164 178 216 255
0.00133505 -0.0338524 1.004 0 0 0 64 91 68 255
0.00133505 -0.0355825 1.004 0 0 0 97 117 133 255
0.00133505 -0.0407725 1.004 0 0 0 167 172 186 255
0.00136297 -0.0433916 1.025 0 0 0 168 175 191 255
0.00137095 -0.0471986 1.031 0 0 0 170 179 196 255
-0.000387273 -0.00938266 0.978 0 0 0 201 208 210 255
-0.000387273 -0.0110679 0.978 0 0 0 218 227 231 255
-0.000388461 -0.0127922 0.981 0 0 0 223 231 239 255
-0.000388461 -0.0144826 0.981 0 0 0 218 228 236 255
-0.000389649 -0.0162225 0.984 0 0 0 219 229 237 255
-0.000390837 -0.0179727 0.987 0 0 0 217 230 239 255
-0.000391629 -0.0197133 0.989 0 0 0 216 230 239 255
-0.000392817 -0.0214824 0.992 0 0 0 214 231 241 255
-0.000392817 -0.0231917 0.992 0 0 0 215 228 242 255
-0.000395193 -0.0267714 0.998 0 0 0 222 235 242 255
-0.000396381 -0.0303016 1.001 0 0 0 207 221 255 255
-0.000397569 -0.0338524 1.004 0 0 0 156 183 160 255
-0.000398757 -0.037424 1.007 0 0 0 162 172 189 255
-0.000398757 -0.0391592 1.007 0 0 0 195 200 214 255
-0.000399945 -0.0410162 1.01 0 0 0 200 205 219 255
-0.000404696 -0.0432646 1.022 0 0 0 211 218 234 255
-0.000405884 -0.0451578 1.025 0 0 0 212 219 235 255
-0.00214928 -0.0393925 1.013 0 0 0 189 196 208 255
-0.00215564 -0.0412599 1.016 0 0 0 193 203 215 255
-0.00216201 -0.0431376 1.019 0 0 0 202 210 218 255
-0.00375122 -0.00599378 0.975 0 0 0 166 173 130 255
-0.00376277 -0.00938266 0.978 0 0 0 202 212 216 255
-0.00376277 -0.0110679 0.978 0 0 0 226 235 239 255
-0.00377431 -0.0127922 0.981 0 0 0 223 231 239 255
-0.00378585 -0.0145269 0.984 0 0 0 218 226 235 255
-0.00379739 -0.0162719 0.987 0 0 0 218 228 236 255
-0.00380509 -0.0197133 0.989 0 0 0 221 233 241 255
-0.00381663 -0.0214824 0.992 0 0 0 217 231 244 255
-0.00381663 -0.0231917 0.992 0 0 0 218 231 249 255
-0.00383971 -0.0267714 0.998 0 0 0 220 232 241 255
-0.00385126 -0.0285767 1.001 0 0 0 214 226 238 255
-0.00385126 -0.0303016 1.001 0 0 0 218 227 240 255
-0.0038628 -0.0321224 1.004 0 0 0 213 224 240 255
-0.00389743 -0.037647 1.013 0 0 0 146 167 178 255
-0.00390897 -0.0395092 1.016 0 0 0 178 185 196 255
-0.00392051 -0.0413817 1.019 0 0 0 179 189 202 255
-0.00543379 -0.00599378 0.975 0 0 0 164 175 119 255
-0.00545051 -0.00938266 0.978 0 0 0 204 215 218 255
-0.00546723 -0.0111018 0.981 0 0 0 226 235 241 255
-0.00546723 -0.0127922 0.981 0 0 0 224 232 241 255
-0.00548395 -0.0145269 0.984 0 0 0 219 227 236 255
-0.00550067 -0.0162719 0.987 0 0 0 218 228 234 255
-0.00551182 -0.0197133 0.989 0 0 0 226 238 247 255
-0.00552854 -0.0214824 0.992 0 0 0 220 232 239 255
-0.00552854 -0.0231917 0.992 0 0 0 219 231 236 255
-0.00556197 -0.0267714 0.998 0 0 0 223 236 241 255
-0.00557869 -0.0285767 1.001 0 0 0 214 224 232 255
-0.00557869 -0.0303016 1.001 0 0 0 217 226 237 255
-0.00559541 -0.0321224 1.004 0 0 0 220 231 243 255
-0.00564557 -0.037647 1.013 0 0 0 152 171 192 255
-0.00566229 -0.0395092 1.016 0 0 0 168 187 201 255
-0.00567901 -0.0413817 1.019 0 0 0 176 186 203 255
-0.00569573 -0.0432646 1.022 0 0 0 175 182 198 255
-0.00711636 -0.00599378 0.975 0 0 0 167 179 122 255
-0.00711636 -0.00767383 0.975 0 0 0 185 193 174 255
-0.00713826 -0.00938266 0.978 0 0 0 198 209 212 255
-0.00716016 -0.0111018 0.981 0 0 0 230 238 244 255
-0.00716016 -0.0127922 0.981 0 0 0 228 235 244 255
-0.00718205 -0.0145269 0.984 0 0 0 223 231 239 255
-0.00720395 -0.0162719 0.987 0 0 0 221 232 237 255
-0.00721855 -0.0197133 0.989 0 0 0 221 233 243 255
-0.00724044 -0.0214824 0.992 0 0 0 219 231 238 255
-0.00724044 -0.0231917 0.992 0 0 0 217 230 235 255
-0.00726234 -0.0249764 0.995 0 0 0 218 233 237 255
-0.00728424 -0.0267714 0.998 0 0 0 221 234 239 255
-0.00732803 -0.0303924 1.004 0 0 0 214 224 234 255
-0.00732803 -0.0321224 1.004 0 0 0 217 229 241 255
-0.00739372 -0.037647 1.013 0 0 0 167 186 207 255
-0.00741561 -0.0395092 1.016 0 0 0 170 188 202 255
-0.00743751 -0.0413817 1.019 0 0 0 176 186 203 255
-0.00745941 -0.0432646 1.022 0 0 0 180 186 202 255
-0.0074813 -0.0451578 1.025 0 0 0 174 187 203 255
-0.00879893 -0.00599378 0.975 0 0 0 166 172 120 255
-0.00882601 -0.00769744 0.978 0 0 0 169 179 157 255
-0.00882601 -0.00938266 0.978 0 0 0 192 203 208 255
-0.00885308 -0.0111018 0.981 0 0 0 226 237 240 255
-0.00885308 -0.0127922 0.981 0 0 0 225 235 241 255
-0.00888015 -0.0145269 0.984 0 0 0 220 231 234 255
-0.00890723 -0.0162719 0.987 0 0 0 221 235 235 255
-0.00892528 -0.0197133 0.989 0 0 0 220 232 239 255
-0.00895235 -0.0214824 0.992 0 0 0 220 230 238 255
-0.00895235 -0.0231917 0.992 0 0 0 219 231 238 255
-0.00897942 -0.0249764 0.995 0 0 0 221 233 241 255
-0.0090065 -0.0267714 0.998 0 0 0 221 232 237 255
-0.00906064 -0.0303924 1.004 0 0 0 212 221 236 255
-0.00906064 -0.0321224 1.004 0 0 0 214 226 238 255
-0.00914187 -0.037647 1.013 0 0 0 176 193 199 255
-0.00919601 -0.0396258 1.019 0 0 0 172 191 200 255
-0.00919601 -0.0413817 1.019 0 0 0 175 189 202 255
-0.00922309 -0.0432646 1.022 0 0 0 180 186 202 255
-0.00925016 -0.0451578 1.025 0 0 0 176 187 199 255
-0.00925016 -0.046924 1.025 0 0 0 184 199 208 255
0.0164059 -0.00765809 0.973 0 0 0 199 204 184 255
0.0469374 -0.0430106 1.016 0 0 0 205 220 229 255
-0.010546 -0.0111018 0.981 0 0 0 225 236 239 255
-0.010546 -0.0127922 0.981 0 0 0 222 233 239 255
-0.010632 -0.0197133 0.989 0 0 0 223 236 243 255
-0.0106965 -0.0249764 0.995 0 0 0 222 235 242 255
-0.0107288 -0.0267714 0.998 0 0 0 220 231 236 255
-0.0107933 -0.0303924 1.004 0 0 0 213 222 237 255
-0.01089 -0.0359014 1.013 0 0 0 190 205 213 255
-0.01089 -0.037647 1.013 0 0 0 179 197 202 255
-0.0109223 -0.0395092 1.016 0 0 0 171 190 199 255
-0.0109545 -0.0413817 1.019 0 0 0 176 190 204 255
-0.0109868 -0.0432646 1.022 0 0 0 181 188 204 255
-0.011019 -0.0451578 1.025 0 0 0 178 190 202 255
-0.011019 -0.0486902 1.025 0 0 0 197 205 212 255
0.0147268 -0.00765809 0.973 0 0 0 192 200 183 255
0.0451841 -0.0430106 1.016 0 0 0 208 222 231 255
-0.0123387 -0.0197133 0.989 0 0 0 224 237 246 255
-0.0123762 -0.0214824 0.992 0 0 0 218 232 243 255
-0.0123762 -0.0231917 0.992 0 0 0 220 231 243 255
-0.012451 -0.0267714 0.998 0 0 0 218 228 236 255
-0.0124884 -0.0285767 1.001 0 0 0 212 224 233 255
-0.0126382 -0.0359014 1.013 0 0 0 192 210 224 255
-0.0126756 -0.0377585 1.016 0 0 0 192 207 225 255
-0.0126756 -0.0395092 1.016 0 0 0 174 194 210 255
-0.012713 -0.0413817 1.019 0 0 0 175 191 204 255
-0.0127504 -0.0432646 1.022 0 0 0 181 189 197 255
-0.0127879 -0.0451578 1.025 0 0 0 176 189 189 255
-0.0128253 -0.0506041 1.028 0 0 0 205 208 189 255
0.0130477 -0.00765809 0.973 0 0 0 191 198 182 255
-0.0138892 -0.00769744 0.978 0 0 0 170 180 161 255
-0.0138892 -0.00938266 0.978 0 0 0 192 205 209 255
-0.0139319 -0.0111018 0.981 0 0 0 222 235 242 255
-0.0139319 -0.0127922 0.981 0 0 0 220 232 239 255
-0.0143863 -0.0359014 1.013 0 0 0 197 216 230 255
-0.0143863 -0.037647 1.013 0 0 0 203 218 236 255
-0.0144289 -0.0395092 1.016 0 0 0 180 200 216 255
-0.0144715 -0.0413817 1.019 0 0 0 175 191 204 255
-0.0145141 -0.0432646 1.022 0 0 0 180 188 196 255
-0.0145567 -0.0451578 1.025 0 0 0 174 188 188 255
-0.0145993 -0.0488327 1.028 0 0 0 194 202 210 255
-0.0145993 -0.0506041 1.028 0 0 0 205 208 189 255
0.0113685 -0.00765809 0.973 0 0 0 189 195 175 255
0.0434308 -0.0430106 1.016 0 0 0 205 221 223 255
0.043559 -0.0448934 1.019 0 0 0 205 221 221 255
-0.015577 -0.00769744 0.978 0 0 0 168 180 165 255
-0.015577 -0.00938266 0.978 0 0 0 190 205 213 255
-0.0156248 -0.0111018 0.981 0 0 0 222 233 239 255
-0.0156248 -0.0127922 0.981 0 0 0 220 233 237 255
-0.0156726 -0.0145269 0.984 0 0 0 210 225 233 255
-0.0157203 -0.0162719 0.987 0 0 0 210 226 236 255
-0.0157522 -0.0197133 0.989 0 0 0 226 238 247 255
-0.0158 -0.0214824 0.992 0 0 0 226 236 244 255
-0.0158 -0.0231917 0.992 0 0 0 221 233 241 255
-0.0158478 -0.0249764 0.995 0 0 0 216 229 236 255
-0.0158955 -0.0267714 0.998 0 0 0 218 228 236 255
-0.0159433 -0.0285767 1.001 0 0 0 211 226 234 255
-0.0159911 -0.0303924 1.004 0 0 0 219 230 242 255
-0.0162778 -0.0432646 1.022 0 0 0 181 189 197 255
-0.0163256 -0.0451578 1.025 0 0 0 172 185 190 255
-0.0163734 -0.0488327 1.028 0 0 0 192 198 214 255
-0.0163734 -0.0506041 1.028 0 0 0 202 209 193 255
-0.0172647 -0.00769744 0.978 0 0 0 175 187 172 255
-0.0172647 -0.00938266 0.978 0 0 0 191 206 215 255
-0.0173177 -0.0111018 0.981 0 0 0 225 235 241 255
-0.0173177 -0.0127922 0.981 0 0 0 223 236 241 255
-0.0173707 -0.0145269 0.984 0 0 0 216 230 239 255
-0.0174236 -0.0162719 0.987 0 0 0 215 232 242 255
-0.0174589 -0.0197133 0.989 0 0 0 228 240 250 255
-0.0175119 -0.0214824 0.992 0 0 0 228 238 246 255
-0.0175119 -0.0231917 0.992 0 0 0 222 235 242 255
-0.0175648 -0.0249764 0.995 0 0 0 216 229 236 255
-0.0176708 -0.0268519 1.001 0 0 0 218 228 236 255
-0.0176708 -0.0285767 1.001 0 0 0 208 222 231 255
-0.0177237 -0.0303924 1.004 0 0 0 210 222 234 255
-0.0178826 -0.0359014 1.013 0 0 0 208 225 235 255
-0.0178826 -0.037647 1.013 0 0 0 213 225 232 255
-0.0179356 -0.0395092 1.016 0 0 0 196 211 219 255
-0.0180944 -0.0433916 1.025 0 0 0 180 188 196 255
0.0416774 -0.0430106 1.016 0 0 0 205 221 223 255
-0.0189525 -0.00769744 0.978 0 0 0 177 186 170 255
-0.0189525 -0.00938266 0.978 0 0 0 200 212 212 255
-0.0190106 -0.0111018 0.981 0 0 0 226 235 237 255
-0.0190106 -0.0127922 0.981 0 0 0 226 236 242 255
-0.0190106 -0.0144826 0.981 0 0 0 217 230 237 255
-0.0190688 -0.0162225 0.984 0 0 0 219 231 238 255
-0.0191269 -0.0179727 0.987 0 0 0 225 240 248 255
-0.0191657 -0.0197133 0.989 0 0 0 230 242 254 255
-0.0192238 -0.0214824 0.992 0 0 0 227 238 250 255
-0.0193401 -0.0250517 0.998 0 0 0 218 233 241 255
-0.0193982 -0.0268519 1.001 0 0 0 219 231 238 255
-0.0193982 -0.0285767 1.001 0 0 0 208 220 230 255
-0.0194563 -0.0303924 1.004 0 0 0 207 219 229 255
-0.0196307 -0.037647 1.013 0 0 0 213 225 234 255
-0.0196889 -0.0395092 1.016 0 0 0 201 209 215 255
-0.019747 -0.0413817 1.019 0 0 0 191 204 208 255
-0.0198633 -0.0451578 1.025 0 0 0 174 187 205 255
-0.0199214 -0.0488327 1.028 0 0 0 192 203 208 255
0.0399241 -0.0430106 1.016 0 0 0 210 223 232 255
-0.0206402 -0.00769744 0.978 0 0 0 179 189 172 255
-0.0206402 -0.00938266 0.978 0 0 0 197 208 209 255
-0.0206402 -0.0110679 0.978 0 0 0 225 234 236 255
-0.0207035 -0.0127922 0.981 0 0 0 221 232 237 255
-0.0207035 -0.0144826 0.981 0 0 0 212 224 231 255
-0.0207669 -0.0162225 0.984 0 0 0 216 229 236 255
-0.0208302 -0.0179727 0.987 0 0 0 227 242 251 255
-0.0208724 -0.0197133 0.989 0 0 0 230 242 254 255
-0.0209357 -0.0214824 0.992 0 0 0 223 235 247 255
-0.0210623 -0.023332 0.998 0 0 0 224 234 242 255
-0.0210623 -0.0250517 0.998 0 0 0 218 233 241 255
-0.0211256 -0.0268519 1.001 0 0 0 217 230 237 255
-0.0211256 -0.0285767 1.001 0 0 0 208 220 230 255
-0.021189 -0.0303924 1.004 0 0 0 207 219 229 255
-0.021189 -0.0321224 1.004 0 0 0 210 223 230 255
-0.0214422 -0.0377585 1.016 0 0 0 210 223 232 255
-0.0214422 -0.0395092 1.016 0 0 0 197 205 212 255
-0.0215055 -0.0413817 1.019 0 0 0 187 200 205 255
-0.000395193 -0.0284911 0.998 0 0 0 219 232 253 255
-0.022328 -0.00769744 0.978 0 0 0 177 191 173 255
-0.022328 -0.00938266 0.978 0 0 0 196 207 210 255
-0.022328 -0.0110679 0.978 0 0 0 218 227 231 255
-0.0223965 -0.0127922 0.981 0 0 0 216 226 234 255
-0.0223965 -0.0144826 0.981 0 0 0 209 222 229 255
-0.022465 -0.0162225 0.984 0 0 0 213 227 241 255
-0.0225335 -0.0179727 0.987 0 0 0 229 241 251 255
-0.0225791 -0.0197133 0.989 0 0 0 232 242 250 255
-0.0226476 -0.0214824 0.992 0 0 0 224 233 244 255
-0.0227846 -0.023332 0.998 0 0 0 220 231 243 255
-0.0227846 -0.0250517 0.998 0 0 0 218 232 243 255
-0.0228531 -0.0268519 1.001 0 0 0 217 230 239 255
-0.0228531 -0.0285767 1.001 0 0 0 209 221 233 255
-0.0229216 -0.0303924 1.004 0 0 0 209 223 236 255
-0.0229216 -0.0321224 1.004 0 0 0 212 223 237 255
-0.023127 -0.0359014 1.013 0 0 0 209 223 236 255
-0.0231955 -0.0377585 1.016 0 0 0 208 221 235 255
-0.0231955 -0.0395092 1.016 0 0 0 198 209 225 255
-0.023401 -0.0451578 1.025 0 0 0 177 191 205 255
-0.023401 -0.046924 1.025 0 0 0 188 197 210 255
-0.00212382 -0.0320264 1.001 0 0 0 206 217 233 255
0.0364175 -0.0430106 1.016 0 0 0 209 221 231 255
-0.0243595 -0.0214824 0.992 0 0 0 222 232 243 255
-0.0245068 -0.023332 0.998 0 0 0 220 231 243 255
-0.0245068 -0.0250517 0.998 0 0 0 217 231 242 255
-0.0245805 -0.0268519 1.001 0 0 0 217 230 239 255
-0.0245805 -0.0285767 1.001 0 0 0 209 221 233 255
-0.0246542 -0.0303924 1.004 0 0 0 209 223 236 255
-0.0246542 -0.0321224 1.004 0 0 0 212 223 237 255
-0.0248752 -0.0359014 1.013 0 0 0 209 223 236 255
-0.0249489 -0.0377585 1.016 0 0 0 208 221 235 255
-0.0249489 -0.0395092 1.016 0 0 0 209 220 237 255
-0.0250225 -0.0413817 1.019 0 0 0 205 218 237 255
-0.0251699 -0.0451578 1.025 0 0 0 182 196 209 255
-0.00730613 -0.0285767 1.001 0 0 0 213 223 231 255
-0.0257035 -0.00769744 0.978 0 0 0 185 200 181 255
-0.0257035 -0.00938266 0.978 0 0 0 207 217 209 255
-0.0257035 -0.0110679 0.978 0 0 0 217 226 228 255
-0.0257823 -0.0127922 0.981 0 0 0 216 224 232 255
-0.0257823 -0.0144826 0.981 0 0 0 206 218 227 255
-0.0258612 -0.0162225 0.984 0 0 0 207 219 227 255
-0.02594 -0.0179727 0.987 0 0 0 229 236 245 255
-0.0259926 -0.0197133 0.989 0 0 0 229 239 250 255
-0.0260714 -0.0214824 0.992 0 0 0 222 233 248 255
-0.0262291 -0.0250517 0.998 0 0 0 218 232 243 255
-0.026308 -0.0268519 1.001 0 0 0 217 230 239 255
-0.026308 -0.0285767 1.001 0 0 0 212 221 234 255
-0.0263868 -0.0303924 1.004 0 0 0 210 222 236 255
-0.0263868 -0.0321224 1.004 0 0 0 214 224 236 255
-0.0265445 -0.0340547 1.01 0 0 0 214 224 234 255
-0.0266233 -0.0359014 1.013 0 0 0 213 223 235 255
-0.0267022 -0.0377585 1.016 0 0 0 213 224 236 255
-0.026781 -0.0396258 1.019 0 0 0 210 224 237 255
-0.0269387 -0.0433916 1.025 0 0 0 189 209 216 255
-0.0269387 -0.0451578 1.025 0 0 0 181 196 202 255
-0.00903357 -0.0285767 1.001 0 0 0 211 221 231 255
-0.0273912 -0.00769744 0.978 0 0 0 186 201 182 255
-0.0273912 -0.00938266 0.978 0 0 0 211 222 214 255
-0.0273912 -0.0110679 0.978 0 0 0 218 227 229 255
-0.0274752 -0.0127922 0.981 0 0 0 216 224 232 255
-0.0275593 -0.0145269 0.984 0 0 0 206 218 227 255
-0.0275593 -0.0162225 0.984 0 0 0 210 223 230 255
-0.0276433 -0.0179727 0.987 0 0 0 233 241 250 255
-0.0277833 -0.0197731 0.992 0 0 0 232 242 252 255
-0.0278673 -0.0215474 0.995 0 0 0 222 233 248 255
-0.0279514 -0.023332 0.998 0 0 0 222 234 246 255
-0.0281194 -0.0286624 1.004 0 0 0 217 226 239 255
-0.0282875 -0.0340547 1.01 0 0 0 216 225 236 255
-0.0283715 -0.0359014 1.013 0 0 0 214 224 236 255
-0.0284555 -0.0377585 1.016 0 0 0 213 224 236 255
-0.0285395 -0.0396258 1.019 0 0 0 209 223 236 255
-0.0286235 -0.0415035 1.022 0 0 0 210 224 237 255
-0.0287076 -0.0433916 1.025 0 0 0 195 215 222 255
-0.0287076 -0.0451578 1.025 0 0 0 188 203 209 255
-0.0287916 -0.0488327 1.028 0 0 0 200 209 227 255
-0.010761 -0.0285767 1.001 0 0 0 211 221 231 255
-0.0110513 -0.0506041 1.028 0 0 0 207 210 191 255
-0.029079 -0.00769744 0.978 0 0 0 190 202 185 255
-0.029079 -0.00938266 0.978 0 0 0 212 223 215 255
-0.0291682 -0.0111018 0.981 0 0 0 219 228 230 255
-0.0291682 -0.0127922 0.981 0 0 0 214 225 230 255
-0.0292574 -0.0145269 0.984 0 0 0 208 220 230 255
-0.0292574 -0.0162225 0.984 0 0 0 214 226 234 255
-0.0293466 -0.0179727 0.987 0 0 0 232 242 250 255
-0.0294952 -0.0197731 0.992 0 0 0 233 242 255 255
-0.0294952 -0.0214824 0.992 0 0 0 220 235 246 255
-0.0296736 -0.023332 0.998 0 0 0 220 235 246 255
-0.0296736 -0.0250517 0.998 0 0 0 220 237 247 255
-0.0297628 -0.0268519 1.001 0 0 0 222 235 242 255
-0.0297628 -0.0285767 1.001 0 0 0 215 227 237 255
-0.029852 -0.0303924 1.004 0 0 0 214 226 234 255
-0.029852 -0.0321224 1.004 0 0 0 217 226 237 255
-0.0301196 -0.0359014 1.013 0 0 0 216 225 238 255
-0.030298 -0.0396258 1.019 0 0 0 212 226 238 255
-0.0304764 -0.0433916 1.025 0 0 0 205 221 232 255
-0.0304764 -0.0451578 1.025 0 0 0 198 213 231 255
-0.0305656 -0.0470613 1.028 0 0 0 195 215 233 255
-0.0305656 -0.0488327 1.028 0 0 0 206 215 230 255
-0.0128253 -0.0488327 1.028 0 0 0 196 204 213 255
-0.0307667 -0.00769744 0.978 0 0 0 190 202 185 255
-0.0307667 -0.00938266 0.978 0 0 0 215 225 217 255
-0.0308611 -0.0111018 0.981 0 0 0 226 235 237 255
-0.0308611 -0.0127922 0.981 0 0 0 220 231 236 255
-0.0309555 -0.0145269 0.984 0 0 0 208 220 230 255
-0.0309555 -0.0162225 0.984 0 0 0 213 225 232 255
-0.0310498 -0.0179727 0.987 0 0 0 227 237 245 255
-0.0312071 -0.0197731 0.992 0 0 0 226 235 248 255
-0.0312071 -0.0214824 0.992 0 0 0 218 232 243 255
-0.0313959 -0.023332 0.998 0 0 0 219 233 245 255
-0.0313959 -0.0250517 0.998 0 0 0 220 237 247 255
-0.0314903 -0.0268519 1.001 0 0 0 221 233 241 255
-0.0314903 -0.0285767 1.001 0 0 0 215 227 237 255
-0.0315846 -0.0303924 1.004 0 0 0 216 229 236 255
-0.0315846 -0.0321224 1.004 0 0 0 221 231 241 255
-0.0319621 -0.0377585 1.016 0 0 0 214 225 242 255
-0.0322453 -0.0433916 1.025 0 0 0 212 228 239 255
-0.0322453 -0.0451578 1.025 0 0 0 204 219 237 255
-0.0323397 -0.0488327 1.028 0 0 0 209 217 233 255
0.0312495 -0.0431376 1.019 0 0 0 213 224 238 255
-0.0324545 -0.00769744 0.978 0 0 0 192 203 186 255
-0.0324545 -0.00938266 0.978 0 0 0 213 226 219 255
-0.032554 -0.0111018 0.981 0 0 0 224 235 236 255
-0.0326536 -0.0145269 0.984 0 0 0 208 221 228 255
-0.0326536 -0.0162225 0.984 0 0 0 213 225 232 255
-0.0328195 -0.0180091 0.989 0 0 0 226 236 244 255
-0.032919 -0.0197731 0.992 0 0 0 223 235 247 255
-0.032919 -0.0214824 0.992 0 0 0 218 232 243 255
-0.0331181 -0.023332 0.998 0 0 0 219 233 245 255
-0.0331181 -0.0250517 0.998 0 0 0 222 234 244 255
-0.0332177 -0.0268519 1.001 0 0 0 221 233 245 255
-0.0332177 -0.0285767 1.001 0 0 0 217 229 241 255
-0.0333173 -0.0303924 1.004 0 0 0 219 230 242 255
-0.0336159 -0.0341559 1.013 0 0 0 217 229 241 255
-0.0337155 -0.0377585 1.016 0 0 0 219 228 243 255
-0.033815 -0.0396258 1.019 0 0 0 216 230 241 255
-0.0340141 -0.0451578 1.025 0 0 0 214 226 236 255
-0.0343517 -0.0145269 0.984 0 0 0 207 219 227 255
-0.0344564 -0.0162719 0.987 0 0 0 213 225 232 255
-0.0345262 -0.0180091 0.989 0 0 0 227 237 245 255
-0.0346309 -0.0197731 0.992 0 0 0 227 238 250 255
-0.0346309 -0.0214824 0.992 0 0 0 223 237 248 255
-0.0348404 -0.023332 0.998 0 0 0 222 236 247 255
-0.0348404 -0.0250517 0.998 0 0 0 223 235 245 255
-0.0349451 -0.0268519 1.001 0 0 0 221 233 245 255
-0.0349451 -0.0285767 1.001 0 0 0 220 231 243 255
-0.0350499 -0.0303924 1.004 0 0 0 219 230 242 255
-0.0352593 -0.0323144 1.01 0 0 0 220 231 243 255
-0.0353641 -0.0341559 1.013 0 0 0 221 233 245 255
-0.0354688 -0.0377585 1.016 0 0 0 225 234 249 255
-0.0355735 -0.0396258 1.019 0 0 0 219 233 245 255
-0.0356783 -0.0415035 1.022 0 0 0 222 235 242 255
-0.035783 -0.0433916 1.025 0 0 0 219 235 246 255
-0.0358877 -0.0452899 1.028 0 0 0 222 234 244 255
-0.0358877 -0.0470613 1.028 0 0 0 219 230 246 255
-0.0358877 -0.0488327 1.028 0 0 0 225 229 243 255
-0.0195145 -0.0322184 1.007 0 0 0 210 223 230 255
-0.0181474 -0.0470613 1.028 0 0 0 181 194 201 255
0.029491 -0.0431376 1.019 0 0 0 216 228 238 255
0.0278141 -0.0450256 1.022 0 0 0 216 228 238 255
-0.03583 -0.00769744 0.978 0 0 0 201 203 193 255
-0.03583 -0.00938266 0.978 0 0 0 214 221 219 255
-0.0359399 -0.0111018 0.981 0 0 0 226 236 242 255
-0.0363429 -0.0197731 0.992 0 0 0 232 242 250 255
-0.0364528 -0.0215474 0.995 0 0 0 226 235 250 255
-0.0365627 -0.023332 0.998 0 0 0 225 234 247 255
-0.0366726 -0.025127 1.001 0 0 0 225 235 245 255
-0.0366726 -0.0268519 1.001 0 0 0 224 234 240 255
-0.0367825 -0.0286624 1.004 0 0 0 220 231 243 255
-0.0367825 -0.0303924 1.004 0 0 0 222 232 243 255
-0.0370023 -0.0323144 1.01 0 0 0 227 237 247 255
-0.0371122 -0.0341559 1.013 0 0 0 227 237 247 255
-0.0372221 -0.0377585 1.016 0 0 0 228 239 244 255
-0.037332 -0.0396258 1.019 0 0 0 227 237 247 255
-0.0374419 -0.0415035 1.022 0 0 0 226 235 239 255
-0.0375518 -0.0433916 1.025 0 0 0 222 234 246 255
-0.0375518 -0.0451578 1.025 0 0 0 226 235 248 255
-0.0375177 -0.00769744 0.978 0 0 0 208 210 200 255
-0.0375177 -0.00938266 0.978 0 0 0 222 229 227 255
-0.0376328 -0.0111018 0.981 0 0 0 236 247 253 255
-0.0377479 -0.0145269 0.984 0 0 0 217 226 239 255
-0.037863 -0.0162719 0.987 0 0 0 222 232 243 255
-0.0379397 -0.0180091 0.989 0 0 0 240 252 255 255
-0.0382849 -0.023332 0.998 0 0 0 234 243 255 255
-0.0384 -0.025127 1.001 0 0 0 236 246 255 255
-0.0384 -0.0268519 1.001 0 0 0 236 247 253 255
-0.0385151 -0.0286624 1.004 0 0 0 233 244 255 255
-0.0388604 -0.0341559 1.013 0 0 0 238 247 255 255
-0.0389754 -0.0377585 1.016 0 0 0 236 247 253 255
-0.0390905 -0.0396258 1.019 0 0 0 229 239 250 255
-0.0392056 -0.0415035 1.022 0 0 0 229 237 241 255
-0.0393207 -0.0433916 1.025 0 0 0 220 231 243 255
-0.0143011 -0.0322184 1.007 0 0 0 216 226 234 255
-0.0393257 -0.00941145 0.981 0 0 0 235 232 192 255
-0.0393257 -0.0111018 0.981 0 0 0 242 246 250 255
-0.039446 -0.0128313 0.984 0 0 0 240 246 248 255
-0.0395662 -0.0145712 0.987 0 0 0 218 233 239 255
-0.0396464 -0.0163049 0.989 0 0 0 224 240 211 255
-0.0397667 -0.0180637 0.992 0 0 0 240 250 255 255
-0.0398869 -0.0198329 0.995 0 0 0 242 254 255 255
-0.0401275 -0.0268519 1.001 0 0 0 239 249 255 255
-0.0407288 -0.0377585 1.016 0 0 0 220 247 193 255
-0.040849 -0.0396258 1.019 0 0 0 227 245 125 255
-0.0409693 -0.0415035 1.022 0 0 0 235 241 91 255
-0.0177767 -0.0322184 1.007 0 0 0 210 223 232 255
-0.0410186 -0.00941145 0.981 0 0 0 238 235 195 255
-0.0410186 -0.0111018 0.981 0 0 0 238 242 245 255
-0.0411441 -0.0128313 0.984 0 0 0 234 240 243 255
-0.0412695 -0.0145712 0.987 0 0 0 195 210 216 255
-0.0413531 -0.0163049 0.989 0 0 0 206 222 194 255
-0.0414786 -0.0180637 0.992 0 0 0 219 229 235 255
-0.0418549 -0.0234022 1.001 0 0 0 189 201 197 255
-0.0418549 -0.025127 1.001 0 0 0 199 203 207 255
-0.0419803 -0.0269323 1.004 0 0 0 189 198 209 255
-0.0419803 -0.0286624 1.004 0 0 0 174 188 188 255
-0.0424821 -0.0360077 1.016 0 0 0 143 160 107 255
-0.0426075 -0.0378699 1.019 0 0 0 135 162 108 255
-0.0280354 -0.025127 1.001 0 0 0 219 233 245 255
-0.0437129 -0.0269323 1.004 0 0 0 176 174 20 255
-0.0439742 -0.030574 1.01 0 0 0 164 164 0 255
0.0256681 -0.0339536 1.007 0 0 0 217 230 237 255
-0.0074813 -0.0486902 1.025 0 0 0 194 203 204 255
-0.0323397 -0.0470613 1.028 0 0 0 195 215 233 255
-0.0376617 -0.0470613 1.028 0 0 0 217 232 238 255
-0.00925016 -0.0486902 1.025 0 0 0 197 205 212 255
-0.0394358 -0.0452899 1.028 0 0 0 216 225 238 255
0.0152868 -0.0357951 1.01 0 0 0 217 229 241 255
0.0135036 -0.0339536 1.007 0 0 0 226 236 246 255
0.0204547 -0.0339536 1.007 0 0 0 220 230 238 255
0.018717 -0.0339536 1.007 0 0 0 224 234 242 255
0.0169792 -0.0339536 1.007 0 0 0 221 231 239 255
0.00136297 -0.0486902 1.025 0 0 0 179 180 188 255
0.0152414 -0.0339536 1.007 0 0 0 221 231 241 255
0.010028 -0.037424 1.007 0 0 0 229 240 246 255
-0.000405884 -0.0486902 1.025 0 0 0 232 233 242 255
-0.00388588 -0.0357951 1.01 0 0 0 144 166 188 255
-0.00214291 -0.0375355 1.01 0 0 0 153 174 185 255
-0.00393205 -0.0450256 1.022 0 0 0 174 186 196 255
-0.00569573 -0.0450256 1.022 0 0 0 166 179 195 255
-0.00562885 -0.0357951 1.01 0 0 0 159 171 192 255
-0.00737182 -0.0357951 1.01 0 0 0 176 189 210 255
-0.00911479 -0.0357951 1.01 0 0 0 180 194 203 255
-0.011019 -0.046924 1.025 0 0 0 186 200 209 255
-0.0108578 -0.0340547 1.01 0 0 0 212 223 235 255
-0.0127879 -0.046924 1.025 0 0 0 184 200 204 255
-0.0125633 -0.0322184 1.007 0 0 0 217 227 235 255
-0.0145567 -0.046924 1.025 0 0 0 181 196 200 255
-0.0163256 -0.046924 1.025 0 0 0 181 194 201 255
-0.0198633 -0.046924 1.025 0 0 0 184 193 206 255
-0.0182004 -0.0507517 1.031 0 0 0 199 207 190 255
0.0507075 -0.0179727 0.987 0 0 0 255 234 23 255
-0.0198052 -0.0432646 1.022 0 0 0 176 192 195 255
-0.0216321 -0.046924 1.025 0 0 0 188 197 210 255
-0.0196307 -0.0359014 1.013 0 0 0 207 224 234 255
0.0466602 -0.0357951 1.01 0 0 0 197 214 222 255
-0.0195726 -0.0340547 1.01 0 0 0 208 225 233 255
-0.0215688 -0.0432646 1.022 0 0 0 182 197 201 255
-0.0213789 -0.0359014 1.013 0 0 0 207 224 234 255
0.0449173 -0.0357951 1.01 0 0 0 211 228 236 255
-0.0213156 -0.0340547 1.01 0 0 0 207 224 232 255
0.0431743 -0.0357951 1.01 0 0 0 208 227 238 255
-0.023264 -0.0413817 1.019 0 0 0 193 205 224 255
-0.0233325 -0.0432646 1.022 0 0 0 184 197 216 255
-0.0230585 -0.0340547 1.01 0 0 0 210 222 234 255
-0.0251699 -0.046924 1.025 0 0 0 191 200 213 255
-0.0248015 -0.0340547 1.01 0 0 0 212 223 235 255
-0.0269387 -0.046924 1.025 0 0 0 188 200 210 255
0.0399135 -0.0126879 0.973 0 0 0 228 235 244 255
-0.0287076 -0.046924 1.025 0 0 0 193 205 215 255
0.0365553 -0.0126879 0.973 0 0 0 228 235 244 255
0.0348762 -0.0126879 0.973 0 0 0 226 234 245 255
-0.0406085 -0.0324104 1.013 0 0 0 229 250 236 255
-0.0423567 -0.0324104 1.013 0 0 0 147 167 153 255
-0.0317734 -0.0340547 1.01 0 0 0 219 229 239 255
0.0264806 -0.0093347 0.973 0 0 0 223 232 222 255
0.0197641 -0.0093347 0.973 0 0 0 215 225 219 255
0.0130477 -0.00598148 0.973 0 0 0 174 180 130 255
0.00968941 -0.0093347 0.973 0 0 0 211 219 211 255
0.00297294 -0.0093347 0.973 0 0 0 206 211 210 255
0.00465206 -0.00765809 0.973 0 0 0 178 186 170 255
0.0488345 -0.0431376 1.019 0 0 0 220 223 217 255
0.00297294 -0.00765809 0.973 0 0 0 180 187 171 255
0.00129382 -0.00765809 0.973 0 0 0 182 184 167 255
-0.000385293 -0.00765809 0.973 0 0 0 177 180 163 255
0.0382835 -0.0448934 1.019 0 0 0 204 220 221 255
-0.0106105 -0.0162719 0.987 0 0 0 220 233 233 255
0.0347665 -0.0448934 1.019 0 0 0 203 219 231 255
-0.0105138 -0.00938266 0.978 0 0 0 191 202 207 255
-0.0123138 -0.0162719 0.987 0 0 0 218 232 245 255
-0.000385293 -0.00598148 0.973 0 0 0 170 174 137 255
0.0502951 -0.0359014 1.013 0 0 0 230 231 228 255
0.0473009 -0.0196734 0.987 0 0 0 218 218 202 255
0.048547 -0.0359014 1.013 0 0 0 210 210 208 255
0.0455977 -0.0179727 0.987 0 0 0 207 219 231 255
0.0455977 -0.0196734 0.987 0 0 0 202 211 222 255
0.0438944 -0.0179727 0.987 0 0 0 224 236 248 255
-0.0388604 -0.0324104 1.013 0 0 0 240 250 255 255
0.0283912 -0.016173 0.981 0 0 0 220 230 238 255
0.0166419 -0.0196734 0.987 0 0 0 222 234 244 255
0.0149387 -0.0196734 0.987 0 0 0 222 233 248 255
0.0281597 -0.00598148 0.973 0 0 0 176 182 142 255
0.0115321 -0.0179727 0.987 0 0 0 224 232 241 255
0.0115321 -0.0196734 0.987 0 0 0 225 233 242 255
0.00668906 -0.0452899 1.028 0 0 0 0 85 92 255
0.0498341 -0.00930591 0.97 0 0 0 255 239 52 255
0.0113685 -0.00598148 0.973 0 0 0 173 178 133 255
-0.00394359 -0.046924 1.025 0 0 0 182 197 201 255
-0.00394359 -0.0486902 1.025 0 0 0 204 208 211 255
-0.00571245 -0.046924 1.025 0 0 0 179 193 202 255
-0.00571245 -0.0486902 1.025 0 0 0 190 199 201 255
0.00968941 -0.00598148 0.973 0 0 0 173 178 133 255
-0.0074813 -0.046924 1.025 0 0 0 181 195 204 255
0.00633118 -0.00598148 0.973 0 0 0 174 179 134 255
0.0397905 -0.00930591 0.97 0 0 0 209 221 217 255
-0.00543379 -0.00767383 0.975 0 0 0 183 191 172 255
-0.0215688 -0.0450256 1.022 0 0 0 179 192 210 255
-0.0250962 -0.0432646 1.022 0 0 0 190 203 222 255
0.0164059 -0.0093347 0.973 0 0 0 215 225 219 255
0.0147268 -0.0093347 0.973 0 0 0 215 223 218 255
0.0130477 -0.0093347 0.973 0 0 0 215 223 218 255
0.0113685 -0.0093347 0.973 0 0 0 212 220 212 255
0.00306766 -0.0390425 1.004 0 0 0 106 133 121 255
0.00133505 -0.0390425 1.004 0 0 0 170 174 189 255
0.0331971 -0.0126879 0.973 0 0 0 225 233 244 255
0.0117658 -0.0356888 1.007 0 0 0 222 233 248 255
0.00315016 -0.0471986 1.031 0 0 0 107 129 135 255
0.00136696 -0.0452899 1.028 0 0 0 171 177 193 255
0.0504441 -0.0377585 1.016 0 0 0 232 234 236 255
-0.000398757 -0.0356888 1.007 0 0 0 137 157 173 255
0.00470465 -0.0501337 0.984 0 0 0 0 22 0 255
0.036525 -0.0448934 1.019 0 0 0 198 214 227 255
-0.0106643 -0.0214824 0.992 0 0 0 220 230 238 255
0.033008 -0.0448934 1.019 0 0 0 206 217 231 255
-0.0178296 -0.0340547 1.01 0 0 0 210 223 232 255
0.00472856 -0.0469801 0.989 0 0 0 0 13 31 255
0.0371564 -0.0231216 0.989 0 0 0 227 236 249 255
0.0414313 -0.0357951 1.01 0 0 0 200 218 230 255
-0.0438436 -0.028748 1.007 0 0 0 171 162 6 255
0.00465206 -0.0093347 0.973 0 0 0 204 209 207 255
0.0344594 -0.0357951 1.01 0 0 0 215 230 236 255
0.00647433 -0.0249764 0.995 0 0 0 227 238 243 255
0.00475725 -0.0249764 0.995 0 0 0 227 237 247 255
0.00819141 -0.0249764 0.995 0 0 0 225 235 241 255
0.0309735 -0.0357951 1.01 0 0 0 215 229 238 255
0.00826551 -0.0373125 1.004 0 0 0 168 249 255 255
0.0292305 -0.0357951 1.01 0 0 0 213 228 237 255
0.00304016 -0.0249764 0.995 0 0 0 224 233 244 255
-0.000394005 -0.0249764 0.995 0 0 0 216 228 240 255
0.00472856 -0.0452759 0.989 0 0 0 0 0 0 255
0.0135438 -0.0357951 1.01 0 0 0 219 230 242 255
0.03347 -0.016173 0.981 0 0 0 221 231 241 255
-0.00554526 -0.0249764 0.995 0 0 0 219 235 239 255
0.0327165 -0.0357951 1.01 0 0 0 215 229 238 255
-0.0205769 -0.00599378 0.975 0 0 0 172 181 137 255
-0.0239421 -0.00599378 0.975 0 0 0 173 183 136 255
-0.0256246 -0.00599378 0.975 0 0 0 173 185 137 255
-0.0108255 -0.0322184 1.007 0 0 0 215 227 239 255
0.0137852 -0.0452899 1.028 0 0 0 213 225 232 255
0.0137852 -0.0470613 1.028 0 0 0 212 224 233 255
0.0270793 -0.0266909 0.995 0 0 0 226 238 247 255
0.0102371 -0.0452899 1.028 0 0 0 229 236 245 255
0.0299002 -0.012714 0.975 0 0 0 224 233 244 255
0.0281597 -0.00765809 0.973 0 0 0 194 205 190 255
-0.0124136 -0.0249764 0.995 0 0 0 221 231 241 255
-0.0400072 -0.0216123 0.998 0 0 0 237 244 255 255
0.0404878 -0.0196734 0.987 0 0 0 228 236 242 255
0.0276509 -0.0395092 1.016 0 0 0 217 230 239 255
0.026535 -0.012714 0.975 0 0 0 228 238 248 255
0.0235739 -0.0231917 0.992 0 0 0 223 237 239 255
-0.0192819 -0.0232619 0.995 0 0 0 224 234 242 255
0.0314208 -0.00763448 0.97 0 0 0 207 212 196 255
-0.00375122 -0.00767383 0.975 0 0 0 181 191 176 255
0.0490042 -0.0196734 0.987 0 0 0 224 224 208 255
0.0253622 -0.0266909 0.995 0 0 0 226 238 245 255
0.0251583 -0.0196734 0.987 0 0 0 210 223 239 255
0.0248525 -0.012714 0.975 0 0 0 231 241 247 255
0.0217518 -0.0196734 0.987 0 0 0 213 225 232 255
-0.0376328 -0.0127922 0.981 0 0 0 236 242 249 255
0.0347687 -0.0109774 0.97 0 0 0 230 236 241 255
0.0297468 -0.00930591 0.97 0 0 0 221 229 222 255
0.0297468 -0.00596304 0.97 0 0 0 176 181 136 255
0.00642227 -0.0179727 0.987 0 0 0 221 228 237 255
0.0132354 -0.0179727 0.987 0 0 0 224 233 246 255
0.0314208 -0.00930591 0.97 0 0 0 225 233 225 255
0.00480028 -0.0373125 1.004 0 0 0 0 13 0 255
0.00653289 -0.0373125 1.004 0 0 0 3 84 102 255
0.0303295 -0.0214174 0.989 0 0 0 225 233 242 255
0.00306766 -0.0373125 1.004 0 0 0 106 133 108 255
