ply
format ascii 1.0
element vertex 742
property float x
property float y
property float z
property float normal_x
property float normal_y
property float normal_z
property uchar red
property uchar green
property uchar blue
property uchar alpha
end_header
0.0118642 -0.528126 1.354 0.530691 0.285131 -0.798165 0 0 0 255
0.0844004 -0.563577 1.392 0.395043 0.223724 -0.891004 0 0 0 255
0.0172174 -0.464469 1.381 0.537268 0.278055 -0.796259 0 0 0 255
0.0847642 -0.540109 1.398 0.495976 0.270562 -0.825108 0 0 0 255
0.128277 -0.551627 1.421 0.535447 0.272877 -0.799271 0 0 0 255
0.128277 -0.554259 1.421 0.539787 0.266018 -0.798664 0 0 0 255
0.00946651 -0.486148 1.37 0.510714 0.279454 -0.813066 0 0 0 255
0.0250906 -0.44754 1.392 0.534195 0.290672 -0.793817 0 0 0 255
0.00439065 -0.48361 1.37 0.502852 0.263318 -0.823288 0 0 0 255
0.138807 -0.57795 1.421 0.56044 0.230379 -0.795508 0 0 0 255
0.0402422 -0.513075 1.381 0.583628 0.362489 -0.726622 0 0 0 255
0.00690329 -0.499545 1.365 0.554303 0.324051 -0.766642 0 0 0 255
0.146704 -0.585847 1.421 0.562278 0.228655 -0.794708 0 0 0 255
0.146505 -0.518115 1.445 0.512915 0.296791 -0.805502 0 0 0 255
0.145288 -0.550976 1.433 0.553692 0.254664 -0.792825 0 0 0 255
0.145288 -0.553631 1.433 0.557414 0.243666 -0.793673 0 0 0 255
0.145288 -0.556285 1.433 0.560706 0.23857 -0.792902 0 0 0 255
0.145288 -0.561594 1.433 0.564461 0.23496 -0.791314 0 0 0 255
0.0172922 -0.448502 1.387 0.540342 0.295436 -0.787875 0 0 0 255
0.143828 -0.515439 1.445 0.508526 0.298251 -0.807742 0 0 0 255
0.141439 -0.583215 1.421 0.564416 0.232272 -0.79214 0 0 0 255
0.0193891 -0.5507 1.354 0.481789 0.1898 -0.855485 0 0 0 255
0.138807 -0.583215 1.421 0.560125 0.231016 -0.795545 0 0 0 255
0.138807 -0.585847 1.421 0.561685 0.229231 -0.794961 0 0 0 255
0.136174 -0.570053 1.421 0.552341 0.223655 -0.803055 0 0 0 255
0.136174 -0.572685 1.421 0.560474 0.227215 -0.796393 0 0 0 255
0.136174 -0.575318 1.421 0.563717 0.230946 -0.793024 0 0 0 255
0.136174 -0.588479 1.421 0.561053 0.228411 -0.795643 0 0 0 255
0.133542 -0.562156 1.421 0.551705 0.230257 -0.801625 0 0 0 255
0.133542 -0.567421 1.421 0.551811 0.221764 -0.803944 0 0 0 255
0.133542 -0.570053 1.421 0.555045 0.228319 -0.799873 0 0 0 255
0.133542 -0.575318 1.421 0.559812 0.229548 -0.79619 0 0 0 255
0.132978 -0.57551 1.415 0.5572 0.222454 -0.800026 0 0 0 255
0.132978 -0.578131 1.415 0.554988 0.22213 -0.801653 0 0 0 255
0.132978 -0.580752 1.415 0.558375 0.221099 -0.799583 0 0 0 255
0.132978 -0.583373 1.415 0.556646 0.221863 -0.800576 0 0 0 255
0.132978 -0.585994 1.415 0.560645 0.225417 -0.796784 0 0 0 255
0.0530337 -0.533541 1.381 0.654555 0.317554 -0.686088 0 0 0 255
0.0297699 -0.51914 1.37 0.536471 0.29224 -0.791703 0 0 0 255
0.132568 -0.510633 1.439 0.505451 0.292776 -0.811666 0 0 0 255
0.13091 -0.559524 1.421 0.547169 0.239862 -0.801918 0 0 0 255
0.13091 -0.562156 1.421 0.548511 0.232471 -0.803177 0 0 0 255
0.130357 -0.57551 1.415 0.557886 0.221765 -0.79974 0 0 0 255
0.130357 -0.583373 1.415 0.562093 0.225342 -0.795784 0 0 0 255
0.130357 -0.585994 1.415 0.562443 0.227901 -0.794807 0 0 0 255
0.136174 -0.585847 1.421 0.56165 0.229261 -0.794977 0 0 0 255
0.141439 -0.57795 1.421 0.561171 0.2306 -0.794928 0 0 0 255
0.138807 -0.580582 1.421 0.562122 0.231386 -0.794028 0 0 0 255
0.0504754 -0.533541 1.381 0.649276 0.320112 -0.689905 0 0 0 255
0.128277 -0.559524 1.421 0.547207 0.254536 -0.797356 0 0 0 255
0.127736 -0.567646 1.415 0.556563 0.219098 -0.801395 0 0 0 255
0.127736 -0.570267 1.415 0.563283 0.21745 -0.797137 0 0 0 255
0.127284 -0.581312 1.41 0.566788 0.230475 -0.790969 0 0 0 255
0.0196182 -0.508988 1.37 0.476167 0.334346 -0.813313 0 0 0 255
0.125114 -0.562404 1.415 0.5477 0.249156 -0.798716 0 0 0 255
0.0821744 -0.53234 1.398 0.484859 0.286064 -0.826486 0 0 0 255
0.125114 -0.567646 1.415 0.558543 0.227419 -0.797691 0 0 0 255
0.124672 -0.5787 1.41 0.56241 0.224991 -0.79566 0 0 0 255
0.124672 -0.581312 1.41 0.564658 0.225964 -0.793789 0 0 0 255
0.122493 -0.562404 1.415 0.540228 0.254725 -0.802041 0 0 0 255
0.124571 -0.49997 1.439 0.505733 0.280684 -0.815751 0 0 0 255
0.123012 -0.54373 1.421 0.51868 0.29376 -0.802917 0 0 0 255
0.122493 -0.559783 1.415 0.532397 0.258781 -0.805968 0 0 0 255
0.122493 -0.567646 1.415 0.558404 0.237693 -0.794787 0 0 0 255
0.12206 -0.573476 1.41 0.566882 0.22957 -0.791165 0 0 0 255
0.12206 -0.576088 1.41 0.56812 0.224577 -0.79171 0 0 0 255
0.12206 -0.5787 1.41 0.558686 0.228042 -0.797413 0 0 0 255
0.12206 -0.583924 1.41 0.564706 0.226 -0.793745 0 0 0 255
0.136174 -0.57795 1.421 0.561171 0.231054 -0.794796 0 0 0 255
0.121905 -0.49997 1.439 0.506423 0.279629 -0.815686 0 0 0 255
0.119872 -0.557161 1.415 0.518735 0.274835 -0.809555 0 0 0 255
0.119448 -0.56564 1.41 0.546324 0.259297 -0.796426 0 0 0 255
0.119448 -0.568252 1.41 0.556085 0.247293 -0.793483 0 0 0 255
0.040417 -0.499888 1.387 0.620354 0.237591 -0.74747 0 0 0 255
0.11725 -0.551919 1.415 0.509786 0.290826 -0.809653 0 0 0 255
0.116836 -0.560416 1.41 0.5227 0.27865 -0.805692 0 0 0 255
0.116836 -0.56564 1.41 0.536589 0.264616 -0.80128 0 0 0 255
0.116339 -0.576237 1.404 0.549612 0.231824 -0.802611 0 0 0 255
0.116339 -0.581439 1.404 0.54746 0.215794 -0.808529 0 0 0 255
0.114224 -0.560416 1.41 0.511456 0.282044 -0.811704 0 0 0 255
0.113738 -0.573637 1.404 0.527287 0.26436 -0.807516 0 0 0 255
0.112483 -0.525304 1.421 0.492075 0.303518 -0.815928 0 0 0 255
0.112008 -0.541434 1.415 0.501133 0.313926 -0.806422 0 0 0 255
0.112008 -0.544055 1.415 0.50777 0.315769 -0.801536 0 0 0 255
0.111137 -0.568435 1.404 0.512961 0.280298 -0.811359 0 0 0 255
0.111137 -0.571036 1.404 0.507881 0.268016 -0.818672 0 0 0 255
0.111137 -0.573637 1.404 0.512515 0.25949 -0.818531 0 0 0 255
0.10985 -0.520039 1.421 0.49604 0.298032 -0.81555 0 0 0 255
0.10985 -0.522671 1.421 0.496002 0.303399 -0.813592 0 0 0 255
0.10985 -0.525304 1.421 0.490102 0.295447 -0.820068 0 0 0 255
0.109387 -0.538813 1.415 0.495009 0.31839 -0.808452 0 0 0 255
0.109387 -0.541434 1.415 0.499366 0.319373 -0.805379 0 0 0 255
0.108072 -0.578954 1.398 0.496734 0.244813 -0.832659 0 0 0 255
0.061456 -0.509032 1.398 0.45418 0.288711 -0.842833 0 0 0 255
0.112008 -0.538813 1.415 0.498668 0.316689 -0.80687 0 0 0 255
0.106765 -0.530949 1.415 0.5047 0.308407 -0.806327 0 0 0 255
0.106765 -0.533571 1.415 0.494725 0.3153 -0.809835 0 0 0 255
0.106765 -0.536192 1.415 0.496082 0.322145 -0.806304 0 0 0 255
0.105483 -0.573775 1.398 0.480685 0.265174 -0.835838 0 0 0 255
0.105483 -0.578954 1.398 0.483056 0.250951 -0.838857 0 0 0 255
0.0429865 -0.497319 1.387 0.610354 0.235174 -0.756413 0 0 0 255
0.0588662 -0.509032 1.398 0.442144 0.285479 -0.8503 0 0 0 255
0.104144 -0.525707 1.415 0.498675 0.297714 -0.814058 0 0 0 255
0.103776 -0.542133 1.41 0.47916 0.318918 -0.817739 0 0 0 255
0.0562764 -0.503853 1.398 0.456669 0.236406 -0.857651 0 0 0 255
0.0562764 -0.509032 1.398 0.441687 0.277196 -0.853273 0 0 0 255
0.0989014 -0.517843 1.415 0.460278 0.274422 -0.844297 0 0 0 255
0.0989014 -0.525707 1.415 0.498599 0.299385 -0.813491 0 0 0 255
0.0989014 -0.528328 1.415 0.507657 0.300384 -0.807498 0 0 0 255
0.0985519 -0.529073 1.41 0.510851 0.305728 -0.803469 0 0 0 255
0.0981326 -0.550229 1.404 0.507327 0.283315 -0.81385 0 0 0 255
0.00437462 -0.491959 1.365 0.535799 0.30554 -0.787124 0 0 0 255
0.0972938 -0.576469 1.392 0.422392 0.231097 -0.876459 0 0 0 255
0.0899438 -0.555647 1.398 0.46733 0.234677 -0.852367 0 0 0 255
0.124672 -0.576088 1.41 0.563582 0.225495 -0.794687 0 0 0 255
0.0962801 -0.512601 1.415 0.468703 0.271144 -0.840713 0 0 0 255
0.0962801 -0.515222 1.415 0.464245 0.271591 -0.843039 0 0 0 255
0.0962801 -0.517843 1.415 0.475723 0.285546 -0.831956 0 0 0 255
0.0962801 -0.525707 1.415 0.498539 0.305566 -0.811226 0 0 0 255
0.0959399 -0.529073 1.41 0.509603 0.306071 -0.80413 0 0 0 255
0.0959399 -0.531685 1.41 0.512413 0.304729 -0.802853 0 0 0 255
0.0951234 -0.555647 1.398 0.456876 0.260895 -0.850411 0 0 0 255
0.0947151 -0.573891 1.392 0.41582 0.229572 -0.879995 0 0 0 255
0.0947151 -0.576469 1.392 0.423663 0.238209 -0.873937 0 0 0 255
-0.00067471 -0.521178 1.349 0.532078 0.300284 -0.791658 0 0 0 255
0.12206 -0.570864 1.41 0.568534 0.230932 -0.789582 0 0 0 255
0.0936588 -0.50998 1.415 0.472744 0.258351 -0.842477 0 0 0 255
0.0936588 -0.512601 1.415 0.471784 0.26671 -0.840408 0 0 0 255
0.0936588 -0.525707 1.415 0.49499 0.30006 -0.815444 0 0 0 255
0.0933279 -0.526461 1.41 0.510961 0.302629 -0.804571 0 0 0 255
0.0933279 -0.529073 1.41 0.512441 0.30562 -0.802496 0 0 0 255
0.0929307 -0.534624 1.404 0.524926 0.310864 -0.792349 0 0 0 255
0.0929307 -0.537225 1.404 0.528717 0.305632 -0.791863 0 0 0 255
0.0925336 -0.555647 1.398 0.478452 0.247791 -0.842427 0 0 0 255
-0.000682712 -0.479316 1.365 0.516232 0.266986 -0.813771 0 0 0 255
0.0921365 -0.573891 1.392 0.420032 0.241954 -0.874661 0 0 0 255
0.094056 -0.491084 1.421 0.505277 0.254166 -0.824678 0 0 0 255
0.0914235 -0.491084 1.421 0.510564 0.256434 -0.820711 0 0 0 255
0.0914235 -0.493716 1.421 0.48495 0.248589 -0.838467 0 0 0 255
0.0910375 -0.502116 1.415 0.483365 0.244669 -0.840533 0 0 0 255
0.0910375 -0.507359 1.415 0.484331 0.251915 -0.837832 0 0 0 255
0.0910375 -0.50998 1.415 0.493001 0.265774 -0.828441 0 0 0 255
0.0907158 -0.516014 1.41 0.505736 0.300892 -0.808515 0 0 0 255
0.0907158 -0.518625 1.41 0.508338 0.307516 -0.80438 0 0 0 255
0.0907158 -0.521237 1.41 0.505637 0.308141 -0.805841 0 0 0 255
0.0907158 -0.526461 1.41 0.505407 0.304287 -0.807449 0 0 0 255
0.0903298 -0.534624 1.404 0.528926 0.307861 -0.79086 0 0 0 255
0.0899438 -0.553057 1.398 0.484111 0.233002 -0.843414 0 0 0 255
0.0899438 -0.558237 1.398 0.462624 0.240553 -0.853296 0 0 0 255
0.0895578 -0.573891 1.392 0.41479 0.248856 -0.875225 0 0 0 255
0.0457201 -0.499112 1.392 0.55195 0.183802 -0.813368 0 0 0 255
0.0884162 -0.496874 1.415 0.526236 0.25831 -0.810155 0 0 0 255
0.0881038 -0.51079 1.41 0.526803 0.282835 -0.801551 0 0 0 255
0.0881038 -0.513402 1.41 0.518859 0.288622 -0.804663 0 0 0 255
0.087354 -0.542698 1.398 0.505177 0.25625 -0.824095 0 0 0 255
0.087354 -0.553057 1.398 0.479637 0.210027 -0.851961 0 0 0 255
0.0869791 -0.558419 1.392 0.435272 0.240445 -0.867597 0 0 0 255
0.0869791 -0.563577 1.392 0.389652 0.229557 -0.891894 0 0 0 255
0.0869791 -0.568734 1.392 0.41082 0.246939 -0.877638 0 0 0 255
0.0869791 -0.573891 1.392 0.430105 0.243962 -0.86919 0 0 0 255
0.0847642 -0.545288 1.398 0.491161 0.228831 -0.840474 0 0 0 255
0.0844004 -0.555841 1.392 0.45391 0.21945 -0.863601 0 0 0 255
0.0844004 -0.558419 1.392 0.420953 0.216784 -0.880797 0 0 0 255
0.0844004 -0.560998 1.392 0.409426 0.212453 -0.887262 0 0 0 255
0.0844004 -0.566155 1.392 0.425979 0.243031 -0.87148 0 0 0 255
0.0844004 -0.568734 1.392 0.431765 0.243941 -0.868373 0 0 0 255
0.0840972 -0.574399 1.387 0.504049 0.237587 -0.830354 0 0 0 255
0.00946651 -0.481072 1.37 0.515476 0.249323 -0.819831 0 0 0 255
0.0044259 -0.441445 1.381 0.534541 0.286154 -0.795224 0 0 0 255
0.0044259 -0.444003 1.381 0.539208 0.288012 -0.791393 0 0 0 255
0.0835263 -0.47529 1.421 0.510118 0.254221 -0.821676 0 0 0 255
0.0831736 -0.48901 1.415 0.519876 0.263064 -0.812728 0 0 0 255
0.0831736 -0.491631 1.415 0.525707 0.261788 -0.809382 0 0 0 255
0.0831736 -0.496874 1.415 0.529514 0.260545 -0.807299 0 0 0 255
0.0828797 -0.502954 1.41 0.526001 0.268131 -0.807111 0 0 0 255
0.0828797 -0.508178 1.41 0.526677 0.26872 -0.806474 0 0 0 255
0.0821744 -0.534929 1.398 0.479624 0.285979 -0.829564 0 0 0 255
0.0818217 -0.548105 1.392 0.461972 0.214198 -0.86064 0 0 0 255
0.0818217 -0.550684 1.392 0.458048 0.202223 -0.86562 0 0 0 255
0.0818217 -0.553262 1.392 0.466841 0.197229 -0.862067 0 0 0 255
0.0818217 -0.563577 1.392 0.45343 0.225389 -0.862323 0 0 0 255
0.0818217 -0.566155 1.392 0.459893 0.244277 -0.853714 0 0 0 255
0.0818217 -0.568734 1.392 0.458497 0.240685 -0.855483 0 0 0 255
0.0815278 -0.571829 1.387 0.515854 0.252843 -0.818514 0 0 0 255
0.0805524 -0.48901 1.415 0.511928 0.260091 -0.818708 0 0 0 255
0.0805524 -0.491631 1.415 0.518674 0.260738 -0.814244 0 0 0 255
0.0802677 -0.502954 1.41 0.519277 0.266088 -0.812126 0 0 0 255
0.0799261 -0.513818 1.404 0.520735 0.284367 -0.804966 0 0 0 255
0.079243 -0.545526 1.392 0.437236 0.243486 -0.865759 0 0 0 255
0.079243 -0.548105 1.392 0.443003 0.227107 -0.867278 0 0 0 255
0.079243 -0.553262 1.392 0.485969 0.193589 -0.852266 0 0 0 255
0.079243 -0.560998 1.392 0.504773 0.206544 -0.838179 0 0 0 255
0.079243 -0.566155 1.392 0.487588 0.231559 -0.841806 0 0 0 255
0.079243 -0.568734 1.392 0.49636 0.250203 -0.831279 0 0 0 255
0.0789584 -0.56926 1.387 0.536951 0.250918 -0.805434 0 0 0 255
0.0789584 -0.574399 1.387 0.529654 0.252581 -0.809734 0 0 0 255
0.0779311 -0.481147 1.415 0.507544 0.251586 -0.824078 0 0 0 255
0.0776557 -0.502954 1.41 0.510745 0.267758 -0.816973 0 0 0 255
0.0776557 -0.505566 1.41 0.505332 0.263476 -0.821718 0 0 0 255
0.0776557 -0.508178 1.41 0.50599 0.263237 -0.821389 0 0 0 255
0.0766643 -0.540369 1.392 0.384627 0.245924 -0.88971 0 0 0 255
0.0766643 -0.545526 1.392 0.418137 0.251148 -0.872976 0 0 0 255
0.0766643 -0.548105 1.392 0.453475 0.262562 -0.851717 0 0 0 255
0.0766643 -0.550684 1.392 0.472276 0.250948 -0.844974 0 0 0 255
0.076389 -0.56926 1.387 0.54711 0.243334 -0.800911 0 0 0 255
0.076389 -0.571829 1.387 0.53901 0.243708 -0.806272 0 0 0 255
0.076389 -0.574399 1.387 0.535188 0.260135 -0.803681 0 0 0 255
0.0753098 -0.481147 1.415 0.501566 0.251241 -0.827834 0 0 0 255
0.0750437 -0.487282 1.41 0.494044 0.256022 -0.830887 0 0 0 255
0.0750437 -0.489894 1.41 0.504881 0.261059 -0.822766 0 0 0 255
0.0750437 -0.502954 1.41 0.499325 0.259534 -0.82663 0 0 0 255
0.0747243 -0.508616 1.404 0.485198 0.300613 -0.821106 0 0 0 255
0.0747243 -0.511217 1.404 0.493214 0.308789 -0.813258 0 0 0 255
0.074405 -0.519391 1.398 0.479467 0.308127 -0.821687 0 0 0 255
0.074405 -0.521981 1.398 0.452255 0.288901 -0.843802 0 0 0 255
0.074405 -0.52457 1.398 0.422069 0.273795 -0.86423 0 0 0 255
0.0740857 -0.537791 1.392 0.349362 0.261259 -0.899828 0 0 0 255
0.0740857 -0.540369 1.392 0.353904 0.256988 -0.899282 0 0 0 255
0.0740857 -0.545526 1.392 0.424872 0.27573 -0.862239 0 0 0 255
0.0740857 -0.548105 1.392 0.453056 0.282508 -0.845535 0 0 0 255
0.0740857 -0.550684 1.392 0.483729 0.276794 -0.830296 0 0 0 255
0.0740857 -0.553262 1.392 0.51146 0.261429 -0.818574 0 0 0 255
0.0738195 -0.553844 1.387 0.537752 0.271334 -0.798248 0 0 0 255
0.0738195 -0.564122 1.387 0.581342 0.230659 -0.780281 0 0 0 255
0.0738195 -0.56926 1.387 0.562801 0.237282 -0.791804 0 0 0 255
0.0738195 -0.574399 1.387 0.547656 0.250819 -0.798225 0 0 0 255
0.079243 -0.555841 1.392 0.503094 0.189368 -0.843229 0 0 0 255
0.00444513 -0.427947 1.387 0.53874 0.288219 -0.791637 0 0 0 255
0.0724316 -0.48467 1.41 0.51042 0.237677 -0.826427 0 0 0 255
0.0721234 -0.498213 1.404 0.487186 0.263326 -0.832652 0 0 0 255
0.0721234 -0.500814 1.404 0.483906 0.256845 -0.836579 0 0 0 255
0.0721234 -0.503415 1.404 0.484352 0.266693 -0.833233 0 0 0 255
0.0721234 -0.508616 1.404 0.478733 0.299526 -0.825287 0 0 0 255
0.0718152 -0.516801 1.398 0.485681 0.313757 -0.815886 0 0 0 255
0.071507 -0.530055 1.392 0.322121 0.26505 -0.908838 0 0 0 255
0.071507 -0.537791 1.392 0.346165 0.266382 -0.899561 0 0 0 255
0.071507 -0.540369 1.392 0.381023 0.293816 -0.876638 0 0 0 255
0.0712501 -0.546136 1.387 0.473439 0.344715 -0.810572 0 0 0 255
0.0712501 -0.548706 1.387 0.517013 0.3339 -0.788167 0 0 0 255
0.0712501 -0.551275 1.387 0.535539 0.31732 -0.782628 0 0 0 255
0.0712501 -0.556414 1.387 0.585623 0.266719 -0.765446 0 0 0 255
0.0709419 -0.564239 1.381 0.619274 0.234232 -0.749424 0 0 0 255
0.0709419 -0.566798 1.381 0.611606 0.240167 -0.753829 0 0 0 255
0.0692254 -0.509032 1.398 0.483696 0.317893 -0.815464 0 0 0 255
0.0692254 -0.514212 1.398 0.483724 0.319401 -0.814859 0 0 0 255
0.0692254 -0.516801 1.398 0.477506 0.299848 -0.82588 0 0 0 255
0.0692254 -0.519391 1.398 0.440222 0.278158 -0.853717 0 0 0 255
0.0692254 -0.521981 1.398 0.419032 0.255005 -0.871427 0 0 0 255
0.0689283 -0.524898 1.392 0.391858 0.224639 -0.89218 0 0 0 255
0.0689283 -0.527476 1.392 0.374979 0.227219 -0.898756 0 0 0 255
0.0689283 -0.530055 1.392 0.341846 0.249248 -0.9061 0 0 0 255
0.0689283 -0.532633 1.392 0.318041 0.265903 -0.910025 0 0 0 255
0.0689283 -0.540369 1.392 0.381522 0.305361 -0.872465 0 0 0 255
0.0686807 -0.548706 1.387 0.522083 0.351982 -0.776877 0 0 0 255
0.0686807 -0.551275 1.387 0.548348 0.346575 -0.761052 0 0 0 255
0.0683836 -0.556565 1.381 0.610626 0.286307 -0.738352 0 0 0 255
0.0683836 -0.564239 1.381 0.623592 0.235652 -0.745386 0 0 0 255
0.068136 -0.567294 1.376 0.590541 0.234298 -0.772247 0 0 0 255
0.068136 -0.569843 1.376 0.58793 0.213134 -0.780328 0 0 0 255
0.0579398 -0.549452 1.376 0.5255 0.348715 -0.776047 0 0 0 255
0.0666356 -0.506443 1.398 0.489018 0.285237 -0.824319 0 0 0 255
0.0666356 -0.516801 1.398 0.462218 0.294884 -0.8363 0 0 0 255
0.0666356 -0.519391 1.398 0.43802 0.265029 -0.85901 0 0 0 255
0.0663496 -0.522319 1.392 0.422279 0.219334 -0.87953 0 0 0 255
0.0663496 -0.524898 1.392 0.409864 0.201179 -0.889685 0 0 0 255
0.0663496 -0.530055 1.392 0.363031 0.232891 -0.902203 0 0 0 255
0.0663496 -0.532633 1.392 0.357839 0.271931 -0.893311 0 0 0 255
0.0663496 -0.535212 1.392 0.361339 0.274904 -0.89099 0 0 0 255
0.0663496 -0.540369 1.392 0.393508 0.32321 -0.860631 0 0 0 255
0.0663496 -0.542948 1.392 0.423058 0.341643 -0.839227 0 0 0 255
0.0661113 -0.543567 1.387 0.497334 0.385798 -0.777058 0 0 0 255
0.0658253 -0.551448 1.381 0.571356 0.366752 -0.734197 0 0 0 255
0.0658253 -0.554007 1.381 0.603037 0.331982 -0.725352 0 0 0 255
0.065587 -0.567294 1.376 0.578278 0.22597 -0.783921 0 0 0 255
0.065587 -0.569843 1.376 0.571697 0.223874 -0.789331 0 0 0 255
0.0640458 -0.501263 1.398 0.483476 0.251094 -0.838572 0 0 0 255
0.0640458 -0.514212 1.398 0.429921 0.313664 -0.846631 0 0 0 255
0.0640458 -0.516801 1.398 0.427619 0.301593 -0.852164 0 0 0 255
0.0637709 -0.524898 1.392 0.408035 0.193132 -0.892305 0 0 0 255
0.0637709 -0.530055 1.392 0.405279 0.234074 -0.883718 0 0 0 255
0.0637709 -0.535212 1.392 0.404874 0.283085 -0.869448 0 0 0 255
0.0637709 -0.537791 1.392 0.413503 0.299175 -0.859948 0 0 0 255
0.0637709 -0.540369 1.392 0.432503 0.336989 -0.836289 0 0 0 255
0.063267 -0.54889 1.381 0.569316 0.40093 -0.717728 0 0 0 255
0.0630379 -0.564745 1.376 0.561312 0.221408 -0.797438 0 0 0 255
0.0779311 -0.478525 1.415 0.501486 0.254527 -0.826878 0 0 0 255
0.061456 -0.498673 1.398 0.475777 0.231432 -0.848573 0 0 0 255
0.061456 -0.501263 1.398 0.467181 0.22983 -0.853768 0 0 0 255
0.061456 -0.503853 1.398 0.476594 0.262678 -0.838963 0 0 0 255
0.0611922 -0.514583 1.392 0.429903 0.282402 -0.857573 0 0 0 255
0.0611922 -0.519741 1.392 0.425675 0.239493 -0.872608 0 0 0 255
0.0200192 -0.423572 1.398 0.537228 0.283499 -0.794365 0 0 0 255
0.0607087 -0.543774 1.381 0.566447 0.429616 -0.703255 0 0 0 255
0.0607087 -0.546332 1.381 0.572749 0.430637 -0.697503 0 0 0 255
0.0604889 -0.559648 1.376 0.529025 0.259273 -0.808029 0 0 0 255
0.0604889 -0.562197 1.376 0.536797 0.249235 -0.806059 0 0 0 255
0.0604889 -0.564745 1.376 0.539699 0.219595 -0.812713 0 0 0 255
0.0588662 -0.490904 1.398 0.48197 0.187857 -0.855812 0 0 0 255
0.0588662 -0.493494 1.398 0.486202 0.195311 -0.85174 0 0 0 255
0.0588662 -0.496084 1.398 0.480988 0.207907 -0.851719 0 0 0 255
0.0588662 -0.498673 1.398 0.470624 0.218055 -0.854965 0 0 0 255
0.0588662 -0.501263 1.398 0.448654 0.213018 -0.867947 0 0 0 255
0.0588662 -0.503853 1.398 0.441963 0.245087 -0.862903 0 0 0 255
0.0586135 -0.514583 1.392 0.462987 0.293632 -0.836315 0 0 0 255
0.0586135 -0.524898 1.392 0.540105 0.199995 -0.817489 0 0 0 255
0.0579398 -0.552001 1.376 0.513053 0.321498 -0.795874 0 0 0 255
0.0576872 -0.564821 1.37 0.488127 0.227447 -0.842615 0 0 0 255
0.0576872 -0.567359 1.37 0.505666 0.18602 -0.842436 0 0 0 255
0.101523 -0.523086 1.415 0.482773 0.29034 -0.826216 0 0 0 255
0.136174 -0.580582 1.421 0.563722 0.231992 -0.792715 0 0 0 255
0.0586135 -0.509426 1.392 0.437923 0.287391 -0.851839 0 0 0 255
0.0562764 -0.496084 1.398 0.473391 0.183695 -0.861485 0 0 0 255
0.0562764 -0.506443 1.398 0.444929 0.268822 -0.854267 0 0 0 255
0.0560349 -0.514583 1.392 0.514688 0.316533 -0.796808 0 0 0 255
0.0560349 -0.517162 1.392 0.537968 0.309596 -0.784054 0 0 0 255
0.0558336 -0.517874 1.387 0.571307 0.287607 -0.768694 0 0 0 255
0.0558336 -0.520443 1.387 0.582526 0.243931 -0.775346 0 0 0 255
0.0558336 -0.523012 1.387 0.601979 0.210634 -0.77023 0 0 0 255
0.0560349 -0.527476 1.392 0.577135 0.190463 -0.794128 0 0 0 255
0.0560349 -0.530055 1.392 0.565227 0.200306 -0.800247 0 0 0 255
0.0558336 -0.53329 1.387 0.607464 0.252456 -0.753162 0 0 0 255
0.0553908 -0.546903 1.376 0.535312 0.338343 -0.773928 0 0 0 255
0.0553908 -0.549452 1.376 0.521302 0.325362 -0.788913 0 0 0 255
0.122493 -0.557161 1.415 0.519571 0.269078 -0.810952 0 0 0 255
0.0560349 -0.509426 1.392 0.471627 0.322005 -0.820903 0 0 0 255
0.0534562 -0.499112 1.392 0.474105 0.191781 -0.859328 0 0 0 255
0.0536866 -0.503853 1.398 0.463071 0.223018 -0.857804 0 0 0 255
0.0534562 -0.506848 1.392 0.496325 0.301511 -0.814096 0 0 0 255
0.0534562 -0.509426 1.392 0.506885 0.33175 -0.795619 0 0 0 255
0.0534562 -0.514583 1.392 0.545382 0.339116 -0.766524 0 0 0 255
0.0532642 -0.517874 1.387 0.579675 0.318396 -0.750068 0 0 0 255
0.0532642 -0.528151 1.387 0.615177 0.207144 -0.760689 0 0 0 255
0.0532642 -0.53329 1.387 0.636084 0.270182 -0.722772 0 0 0 255
0.0528417 -0.546903 1.376 0.533008 0.321686 -0.782573 0 0 0 255
0.0528417 -0.549452 1.376 0.523952 0.320851 -0.789006 0 0 0 255
0.0526113 -0.557207 1.37 0.458289 0.220721 -0.86096 0 0 0 255
0.0526113 -0.567359 1.37 0.48332 0.21195 -0.849399 0 0 0 255
0.0789584 -0.571829 1.387 0.532412 0.259775 -0.80564 0 0 0 255
0.00430412 -0.553689 1.343 0.50359 0.201509 -0.840114 0 0 0 255
0.0508775 -0.493955 1.392 0.49027 0.149128 -0.858718 0 0 0 255
0.0508775 -0.496533 1.392 0.480754 0.157665 -0.862564 0 0 0 255
0.0510968 -0.503853 1.398 0.458249 0.223081 -0.860374 0 0 0 255
0.0506947 -0.512735 1.387 0.545745 0.380324 -0.74667 0 0 0 255
0.0504754 -0.523308 1.381 0.61085 0.258294 -0.748429 0 0 0 255
0.0504754 -0.525866 1.381 0.634832 0.265019 -0.725778 0 0 0 255
0.0504754 -0.528424 1.381 0.648259 0.271072 -0.711534 0 0 0 255
0.0504754 -0.536099 1.381 0.647279 0.336717 -0.683851 0 0 0 255
0.0502927 -0.536707 1.376 0.594078 0.319777 -0.738115 0 0 0 255
0.0502927 -0.539256 1.376 0.576545 0.318318 -0.752509 0 0 0 255
0.0500734 -0.554669 1.37 0.454563 0.235549 -0.859005 0 0 0 255
0.0500734 -0.557207 1.37 0.464186 0.234957 -0.854007 0 0 0 255
0.0500734 -0.567359 1.37 0.484745 0.224921 -0.845241 0 0 0 255
0.125645 -0.546362 1.421 0.521466 0.287358 -0.803429 0 0 0 255
0.0508775 -0.509426 1.392 0.519507 0.358467 -0.775637 0 0 0 255
0.048507 -0.472776 1.398 0.485389 0.256888 -0.835707 0 0 0 255
0.0481253 -0.510166 1.387 0.549704 0.373817 -0.747052 0 0 0 255
0.0479171 -0.52075 1.381 0.60386 0.299322 -0.738755 0 0 0 255
0.0479171 -0.523308 1.381 0.621365 0.285495 -0.729656 0 0 0 255
0.0479171 -0.525866 1.381 0.636911 0.280564 -0.718073 0 0 0 255
0.0479171 -0.528424 1.381 0.646116 0.278195 -0.710733 0 0 0 255
0.0479171 -0.530983 1.381 0.644854 0.298415 -0.703642 0 0 0 255
0.0477436 -0.531609 1.376 0.593585 0.294146 -0.749089 0 0 0 255
0.0477436 -0.534158 1.376 0.588833 0.303233 -0.749217 0 0 0 255
0.0477436 -0.539256 1.376 0.573397 0.303616 -0.760943 0 0 0 255
0.0475355 -0.547056 1.37 0.475744 0.243128 -0.845314 0 0 0 255
0.0475355 -0.557207 1.37 0.469212 0.243726 -0.848786 0 0 0 255
0.0475355 -0.559745 1.37 0.472275 0.233935 -0.849841 0 0 0 255
0.139393 -0.556599 1.427 0.553811 0.245996 -0.795474 0 0 0 255
-0.00317374 -0.51618 1.349 0.56653 0.306779 -0.764807 0 0 0 255
0.0457201 -0.486219 1.392 0.521032 0.200343 -0.829691 0 0 0 255
0.0457201 -0.488797 1.392 0.522997 0.185287 -0.831951 0 0 0 255
0.0457201 -0.491376 1.392 0.537516 0.174881 -0.82492 0 0 0 255
0.0455559 -0.507596 1.387 0.578415 0.334833 -0.743857 0 0 0 255
0.0453588 -0.515633 1.381 0.556503 0.373582 -0.742119 0 0 0 255
0.0453588 -0.523308 1.381 0.611777 0.298103 -0.73271 0 0 0 255
0.0451946 -0.531609 1.376 0.564273 0.29408 -0.771436 0 0 0 255
0.0449975 -0.552132 1.37 0.496193 0.236655 -0.835336 0 0 0 255
0.0449975 -0.559745 1.37 0.481527 0.242077 -0.842336 0 0 0 255
0.0449975 -0.562283 1.37 0.481007 0.235853 -0.844397 0 0 0 255
0.0448333 -0.562759 1.365 0.506962 0.247171 -0.82577 0 0 0 255
0.065587 -0.562197 1.376 0.582851 0.226026 -0.780511 0 0 0 255
0.0709419 -0.561681 1.381 0.618922 0.239263 -0.748124 0 0 0 255
0.0431414 -0.48364 1.392 0.513436 0.234048 -0.825594 0 0 0 255
0.0429865 -0.49475 1.387 0.596249 0.22443 -0.770791 0 0 0 255
0.0431414 -0.50169 1.392 0.593917 0.238703 -0.768299 0 0 0 255
0.0431414 -0.504269 1.392 0.592109 0.263732 -0.76148 0 0 0 255
0.0431414 -0.506848 1.392 0.590986 0.297969 -0.749633 0 0 0 255
0.0429865 -0.507596 1.387 0.586191 0.312864 -0.747326 0 0 0 255
0.0428005 -0.523308 1.381 0.590215 0.298006 -0.750225 0 0 0 255
0.0426456 -0.531609 1.376 0.559852 0.284308 -0.77829 0 0 0 255
0.0424596 -0.547056 1.37 0.501687 0.237752 -0.831735 0 0 0 255
0.0424596 -0.552132 1.37 0.491653 0.235818 -0.838253 0 0 0 255
0.0424596 -0.554669 1.37 0.488148 0.23497 -0.840536 0 0 0 255
0.0423046 -0.560231 1.365 0.519767 0.27494 -0.808858 0 0 0 255
0.0423046 -0.562759 1.365 0.522613 0.279473 -0.805463 0 0 0 255
0.0405627 -0.475904 1.392 0.514909 0.280824 -0.809942 0 0 0 255
0.0405627 -0.478483 1.392 0.512721 0.27324 -0.813915 0 0 0 255
0.0405627 -0.481062 1.392 0.513892 0.256024 -0.818759 0 0 0 255
0.040417 -0.49475 1.387 0.602482 0.230128 -0.764236 0 0 0 255
0.040417 -0.502458 1.387 0.613245 0.24452 -0.751093 0 0 0 255
0.0402422 -0.510517 1.381 0.599203 0.344317 -0.722774 0 0 0 255
0.0400965 -0.521413 1.376 0.549987 0.309149 -0.775849 0 0 0 255
0.0400965 -0.52906 1.376 0.5475 0.276568 -0.789781 0 0 0 255
0.0399217 -0.547056 1.37 0.508281 0.233158 -0.829028 0 0 0 255
0.039776 -0.552645 1.365 0.536388 0.251058 -0.805765 0 0 0 255
0.039776 -0.555174 1.365 0.536106 0.261658 -0.802574 0 0 0 255
0.039776 -0.557702 1.365 0.533604 0.269725 -0.80157 0 0 0 255
0.039776 -0.560231 1.365 0.531424 0.280928 -0.799167 0 0 0 255
0.039776 -0.562759 1.365 0.528865 0.285017 -0.799417 0 0 0 255
0.0475355 -0.567359 1.37 0.479639 0.231766 -0.846304 0 0 0 255
0.0815278 -0.56926 1.387 0.511013 0.249808 -0.822473 0 0 0 255
0.079243 -0.542948 1.392 0.420804 0.232307 -0.876902 0 0 0 255
0.0453588 -0.518192 1.381 0.578281 0.353388 -0.735329 0 0 0 255
0.0379841 -0.470747 1.392 0.524185 0.288788 -0.801144 0 0 0 255
0.0379841 -0.473326 1.392 0.524732 0.292393 -0.799476 0 0 0 255
0.0379841 -0.475904 1.392 0.528916 0.283945 -0.799765 0 0 0 255
0.0379841 -0.478483 1.392 0.533224 0.280218 -0.798217 0 0 0 255
0.0379841 -0.481062 1.392 0.534494 0.268872 -0.801264 0 0 0 255
0.0379841 -0.48364 1.392 0.545118 0.258272 -0.797585 0 0 0 255
0.0378476 -0.49475 1.387 0.587173 0.23117 -0.77575 0 0 0 255
0.0378476 -0.497319 1.387 0.606602 0.232946 -0.760112 0 0 0 255
0.0378476 -0.502458 1.387 0.611973 0.241943 -0.752963 0 0 0 255
0.0378476 -0.505027 1.387 0.616774 0.271097 -0.738983 0 0 0 255
0.0376839 -0.5054 1.381 0.601411 0.308194 -0.737104 0 0 0 255
0.0376839 -0.507959 1.381 0.611464 0.320862 -0.723298 0 0 0 255
0.0376839 -0.510517 1.381 0.598202 0.343142 -0.72416 0 0 0 255
0.0376839 -0.513075 1.381 0.598416 0.34833 -0.721501 0 0 0 255
0.0376839 -0.515633 1.381 0.582636 0.35228 -0.732416 0 0 0 255
0.0375475 -0.516315 1.376 0.544561 0.323512 -0.773817 0 0 0 255
0.0373837 -0.529291 1.37 0.53713 0.262489 -0.801618 0 0 0 255
0.0373837 -0.534367 1.37 0.53029 0.27836 -0.800817 0 0 0 255
0.0373837 -0.536905 1.37 0.518742 0.280547 -0.807589 0 0 0 255
0.0372473 -0.552645 1.365 0.549501 0.260957 -0.793694 0 0 0 255
0.0372473 -0.555174 1.365 0.549043 0.257026 -0.795292 0 0 0 255
0.0372473 -0.557702 1.365 0.550903 0.260428 -0.792895 0 0 0 255
0.0372473 -0.560231 1.365 0.535784 0.269848 -0.800074 0 0 0 255
0.0370836 -0.562803 1.359 0.536746 0.236896 -0.809805 0 0 0 255
0.0354054 -0.475904 1.392 0.537213 0.300275 -0.788186 0 0 0 255
0.0352782 -0.479334 1.387 0.532301 0.292922 -0.794262 0 0 0 255
0.0352782 -0.484472 1.387 0.545322 0.270866 -0.793256 0 0 0 255
0.0352782 -0.487042 1.387 0.555635 0.255397 -0.791228 0 0 0 255
0.0352782 -0.49218 1.387 0.565981 0.220084 -0.794499 0 0 0 255
0.0351256 -0.497726 1.381 0.579408 0.265396 -0.770618 0 0 0 255
0.0349984 -0.511218 1.376 0.557643 0.330214 -0.761573 0 0 0 255
0.0349984 -0.513766 1.376 0.541124 0.325779 -0.775276 0 0 0 255
0.0349984 -0.516315 1.376 0.543365 0.323165 -0.774802 0 0 0 255
0.116339 -0.578838 1.404 0.548896 0.2136 -0.808139 0 0 0 255
0.0347186 -0.547588 1.365 0.544294 0.264641 -0.796059 0 0 0 255
0.034566 -0.555251 1.359 0.560732 0.261461 -0.785632 0 0 0 255
0.034566 -0.557768 1.359 0.553961 0.248657 -0.794542 0 0 0 255
0.0766643 -0.542948 1.392 0.413059 0.251546 -0.875275 0 0 0 255
-0.00317374 -0.521178 1.349 0.538504 0.298611 -0.787937 0 0 0 255
0.0328267 -0.470747 1.392 0.52972 0.294293 -0.79548 0 0 0 255
0.0328267 -0.473326 1.392 0.534208 0.297289 -0.791354 0 0 0 255
0.0328267 -0.475904 1.392 0.536133 0.297554 -0.789951 0 0 0 255
0.0327088 -0.479334 1.387 0.526702 0.292933 -0.797982 0 0 0 255
0.0325673 -0.495168 1.381 0.572291 0.266701 -0.77547 0 0 0 255
0.0325673 -0.497726 1.381 0.577953 0.285207 -0.764609 0 0 0 255
0.0324494 -0.511218 1.376 0.554068 0.329606 -0.76444 0 0 0 255
0.0323079 -0.529291 1.37 0.548508 0.265188 -0.792978 0 0 0 255
0.03219 -0.537474 1.365 0.547313 0.27597 -0.79012 0 0 0 255
0.03219 -0.542531 1.365 0.537957 0.27787 -0.795858 0 0 0 255
0.03219 -0.545059 1.365 0.547056 0.27213 -0.791628 0 0 0 255
0.03219 -0.547588 1.365 0.550077 0.272618 -0.789363 0 0 0 255
0.0320485 -0.550216 1.359 0.563942 0.259742 -0.783903 0 0 0 255
0.0320485 -0.552733 1.359 0.56206 0.261867 -0.784547 0 0 0 255
0.12206 -0.581312 1.41 0.559067 0.227793 -0.797216 0 0 0 255
0.0354054 -0.470747 1.392 0.529164 0.296482 -0.795037 0 0 0 255
0.0773252 -0.513818 1.404 0.512059 0.305488 -0.802791 0 0 0 255
0.0424596 -0.54198 1.37 0.505121 0.262934 -0.822021 0 0 0 255
0.0193891 -0.540667 1.354 0.535455 0.254648 -0.805259 0 0 0 255
0.030248 -0.468169 1.392 0.528656 0.294908 -0.79596 0 0 0 255
0.0301394 -0.474195 1.387 0.526427 0.29502 -0.797394 0 0 0 255
0.0301394 -0.479334 1.387 0.526129 0.290888 -0.799107 0 0 0 255
0.0299003 -0.50612 1.376 0.535416 0.330791 -0.777114 0 0 0 255
0.0297699 -0.516602 1.37 0.531254 0.302883 -0.791221 0 0 0 255
0.0297699 -0.529291 1.37 0.536638 0.272757 -0.798513 0 0 0 255
0.0296613 -0.529888 1.365 0.539667 0.258006 -0.801369 0 0 0 255
0.0296613 -0.532417 1.365 0.548559 0.255897 -0.79599 0 0 0 255
0.0296613 -0.534945 1.365 0.559655 0.263125 -0.785844 0 0 0 255
0.0296613 -0.537474 1.365 0.556432 0.270148 -0.78575 0 0 0 255
0.0296613 -0.540002 1.365 0.546691 0.267606 -0.79342 0 0 0 255
0.0295309 -0.550216 1.359 0.558344 0.263964 -0.786495 0 0 0 255
0.0295309 -0.552733 1.359 0.570392 0.251866 -0.781803 0 0 0 255
0.0294223 -0.558224 1.354 0.528557 0.218139 -0.820392 0 0 0 255
0.0294223 -0.560733 1.354 0.524315 0.222337 -0.821986 0 0 0 255
0.0709419 -0.559123 1.381 0.61881 0.218741 -0.754471 0 0 0 255
0.0400965 -0.523962 1.376 0.549981 0.298681 -0.779943 0 0 0 255
0.00182432 -0.526176 1.349 0.53576 0.283833 -0.795236 0 0 0 255
0.0558336 -0.53072 1.387 0.608305 0.223565 -0.761566 0 0 0 255
0.0747243 -0.513818 1.404 0.494244 0.326119 -0.805835 0 0 0 255
0.0399217 -0.534367 1.37 0.513767 0.276585 -0.812123 0 0 0 255
0.0399217 -0.536905 1.37 0.508622 0.283024 -0.813143 0 0 0 255
0.0276693 -0.457854 1.392 0.538848 0.304468 -0.785456 0 0 0 255
0.0275699 -0.466487 1.387 0.529333 0.291506 -0.796762 0 0 0 255
0.0275699 -0.469056 1.387 0.525396 0.282132 -0.80272 0 0 0 255
0.0273513 -0.495924 1.376 0.515627 0.289552 -0.806405 0 0 0 255
0.0273513 -0.501022 1.376 0.533815 0.314601 -0.7849 0 0 0 255
0.027232 -0.511526 1.37 0.519082 0.299629 -0.800485 0 0 0 255
0.0271326 -0.524831 1.365 0.532348 0.289153 -0.795611 0 0 0 255
0.0271326 -0.529888 1.365 0.546299 0.271771 -0.792274 0 0 0 255
0.0271326 -0.532417 1.365 0.553566 0.268089 -0.788475 0 0 0 255
0.0271326 -0.534945 1.365 0.555373 0.258031 -0.790557 0 0 0 255
0.026914 -0.555716 1.354 0.513517 0.217764 -0.829987 0 0 0 255
0.026914 -0.558224 1.354 0.515082 0.211647 -0.8306 0 0 0 255
0.026914 -0.560733 1.354 0.501832 0.189465 -0.84396 0 0 0 255
0.0143725 -0.533142 1.354 0.532418 0.267837 -0.802991 0 0 0 255
0.0143725 -0.535651 1.354 0.534727 0.267135 -0.80169 0 0 0 255
0.0143725 -0.538159 1.354 0.533744 0.251493 -0.807384 0 0 0 255
0.0250906 -0.455276 1.392 0.543006 0.30465 -0.782517 0 0 0 255
0.0250005 -0.466487 1.387 0.523542 0.286494 -0.802387 0 0 0 255
0.0250005 -0.469056 1.387 0.518399 0.278874 -0.808388 0 0 0 255
0.0248022 -0.490826 1.376 0.492059 0.28604 -0.822228 0 0 0 255
0.0248022 -0.495924 1.376 0.507484 0.304426 -0.806092 0 0 0 255
0.0246941 -0.50645 1.37 0.494388 0.332841 -0.802993 0 0 0 255
0.0246941 -0.508988 1.37 0.508427 0.334406 -0.793521 0 0 0 255
0.0246941 -0.511526 1.37 0.51747 0.309362 -0.797822 0 0 0 255
0.024604 -0.519774 1.365 0.524548 0.305365 -0.794734 0 0 0 255
0.024604 -0.527359 1.365 0.526658 0.292519 -0.798163 0 0 0 255
0.0244958 -0.540146 1.359 0.562595 0.281632 -0.777284 0 0 0 255
0.0244958 -0.542663 1.359 0.562943 0.274671 -0.77952 0 0 0 255
0.0244958 -0.547698 1.359 0.53718 0.264142 -0.801041 0 0 0 255
0.030248 -0.470747 1.392 0.532175 0.294627 -0.793715 0 0 0 255
0.0118642 -0.538159 1.354 0.523317 0.239463 -0.8178 0 0 0 255
0.0225119 -0.444961 1.392 0.53643 0.28755 -0.793447 0 0 0 255
0.0225119 -0.44754 1.392 0.53362 0.289838 -0.794509 0 0 0 255
0.0225119 -0.455276 1.392 0.54455 0.30564 -0.781057 0 0 0 255
0.0224311 -0.458779 1.387 0.532872 0.300555 -0.791021 0 0 0 255
0.0224311 -0.461348 1.387 0.528586 0.290269 -0.79771 0 0 0 255
0.0224311 -0.466487 1.387 0.526889 0.279498 -0.802664 0 0 0 255
0.103776 -0.539521 1.41 0.491118 0.320145 -0.81013 0 0 0 255
0.0222532 -0.490826 1.376 0.477902 0.297896 -0.826358 0 0 0 255
0.0222532 -0.493375 1.376 0.487817 0.297417 -0.820718 0 0 0 255
0.0222532 -0.495924 1.376 0.475188 0.298939 -0.827546 0 0 0 255
0.0221562 -0.503913 1.37 0.478066 0.327167 -0.815116 0 0 0 255
0.0221562 -0.514064 1.37 0.51506 0.312219 -0.798268 0 0 0 255
0.0219783 -0.532594 1.359 0.542452 0.273925 -0.794173 0 0 0 255
0.0219783 -0.540146 1.359 0.561667 0.278706 -0.779008 0 0 0 255
0.0218974 -0.560733 1.354 0.498273 0.17972 -0.848189 0 0 0 255
0.0200192 -0.426162 1.398 0.541155 0.287105 -0.790393 0 0 0 255
0.0200192 -0.428751 1.398 0.541217 0.286712 -0.790494 0 0 0 255
0.0199333 -0.439804 1.392 0.542426 0.28743 -0.789403 0 0 0 255
0.0199333 -0.444961 1.392 0.538503 0.287352 -0.792113 0 0 0 255
0.0199333 -0.450119 1.392 0.543194 0.296721 -0.785428 0 0 0 255
0.0198617 -0.45364 1.387 0.535529 0.302091 -0.788638 0 0 0 255
0.0198617 -0.45621 1.387 0.539416 0.299386 -0.787019 0 0 0 255
0.0198617 -0.458779 1.387 0.528625 0.298634 -0.79459 0 0 0 255
0.0197041 -0.483179 1.376 0.483736 0.262188 -0.835019 0 0 0 255
0.0197041 -0.485728 1.376 0.477398 0.277189 -0.833821 0 0 0 255
0.0196182 -0.50645 1.37 0.480898 0.340256 -0.808061 0 0 0 255
0.0196182 -0.511526 1.37 0.484443 0.327345 -0.811271 0 0 0 255
0.0195466 -0.512188 1.365 0.512485 0.326956 -0.794015 0 0 0 255
0.0195466 -0.514717 1.365 0.520611 0.31328 -0.794242 0 0 0 255
0.0195466 -0.517245 1.365 0.517458 0.311236 -0.797101 0 0 0 255
0.0193891 -0.545683 1.354 0.511261 0.220343 -0.830699 0 0 0 255
0.0193891 -0.548192 1.354 0.487946 0.19143 -0.851624 0 0 0 255
0.0193891 -0.555716 1.354 0.484424 0.195346 -0.852745 0 0 0 255
0.0193891 -0.558224 1.354 0.4965 0.179244 -0.849329 0 0 0 255
0.0193891 -0.560733 1.354 0.499953 0.177196 -0.847731 0 0 0 255
0.00943196 -0.499545 1.365 0.538231 0.334785 -0.773451 0 0 0 255
0.0637709 -0.527476 1.392 0.409893 0.192905 -0.891502 0 0 0 255
0.0174294 -0.418393 1.398 0.54119 0.289475 -0.789505 0 0 0 255
0.0173546 -0.434647 1.392 0.541512 0.288907 -0.789492 0 0 0 255
0.0173546 -0.44754 1.392 0.540489 0.28988 -0.789836 0 0 0 255
0.0171551 -0.478081 1.376 0.49392 0.254123 -0.831544 0 0 0 255
0.0171551 -0.48063 1.376 0.489103 0.256608 -0.833625 0 0 0 255
0.0171551 -0.483179 1.376 0.480291 0.259473 -0.837851 0 0 0 255
0.0171551 -0.490826 1.376 0.461197 0.283088 -0.840927 0 0 0 255
0.0170803 -0.503913 1.37 0.479503 0.325929 -0.814768 0 0 0 255
0.0170803 -0.50645 1.37 0.483003 0.33944 -0.807148 0 0 0 255
0.017018 -0.512188 1.365 0.519835 0.337955 -0.784575 0 0 0 255
0.017018 -0.514717 1.365 0.524145 0.323445 -0.787816 0 0 0 255
0.0168808 -0.538159 1.354 0.543115 0.263139 -0.79736 0 0 0 255
0.0168808 -0.540667 1.354 0.534929 0.243038 -0.809187 0 0 0 255
0.0168808 -0.545683 1.354 0.5019 0.189175 -0.843984 0 0 0 255
0.0168185 -0.551165 1.349 0.482067 0.172355 -0.859014 0 0 0 255
0.0168185 -0.553664 1.349 0.476698 0.174356 -0.861603 0 0 0 255
0.0168185 -0.556163 1.349 0.472694 0.169361 -0.864799 0 0 0 255
0.0168808 -0.560733 1.354 0.488722 0.183414 -0.852942 0 0 0 255
0.0844004 -0.553262 1.392 0.470286 0.201342 -0.859239 0 0 0 255
0.0611922 -0.522319 1.392 0.46508 0.218912 -0.857775 0 0 0 255
0.0147759 -0.42949 1.392 0.544506 0.289803 -0.787101 0 0 0 255
0.0147228 -0.443363 1.387 0.540989 0.288624 -0.789954 0 0 0 255
0.0147228 -0.445932 1.387 0.539128 0.292592 -0.789766 0 0 0 255
0.0146061 -0.472983 1.376 0.499251 0.252281 -0.828917 0 0 0 255
0.0146061 -0.475532 1.376 0.49479 0.248777 -0.832642 0 0 0 255
0.0146061 -0.478081 1.376 0.501724 0.246039 -0.8293 0 0 0 255
0.0146061 -0.48063 1.376 0.498506 0.247131 -0.830914 0 0 0 255
0.0146061 -0.483179 1.376 0.465373 0.249637 -0.849181 0 0 0 255
0.0145424 -0.503913 1.37 0.484227 0.323897 -0.812782 0 0 0 255
0.0145424 -0.50645 1.37 0.483865 0.334729 -0.808599 0 0 0 255
0.0144893 -0.512188 1.365 0.517692 0.34999 -0.780706 0 0 0 255
0.0144893 -0.514717 1.365 0.538343 0.323993 -0.777956 0 0 0 255
0.0143725 -0.540667 1.354 0.517444 0.232897 -0.823414 0 0 0 255
0.0143195 -0.546167 1.349 0.494549 0.178158 -0.850695 0 0 0 255
0.0143195 -0.551165 1.349 0.487901 0.179976 -0.854144 0 0 0 255
0.0143195 -0.553664 1.349 0.482568 0.1763 -0.857932 0 0 0 255
0.0143195 -0.556163 1.349 0.478203 0.177232 -0.860181 0 0 0 255
0.0586135 -0.519741 1.392 0.504472 0.253522 -0.825369 0 0 0 255
0.0586135 -0.522319 1.392 0.52766 0.221141 -0.820166 0 0 0 255
0.0121972 -0.426911 1.392 0.540197 0.286885 -0.791128 0 0 0 255
0.0121972 -0.42949 1.392 0.540187 0.286863 -0.791143 0 0 0 255
0.0121972 -0.432068 1.392 0.540102 0.287036 -0.791138 0 0 0 255
0.0121534 -0.440794 1.387 0.540836 0.287463 -0.790482 0 0 0 255
0.0121534 -0.443363 1.387 0.543732 0.287805 -0.788368 0 0 0 255
0.0121534 -0.445932 1.387 0.538601 0.289287 -0.791342 0 0 0 255
0.012057 -0.467885 1.376 0.523374 0.252364 -0.813875 0 0 0 255
0.012057 -0.475532 1.376 0.50434 0.243632 -0.828423 0 0 0 255
0.012057 -0.478081 1.376 0.499555 0.245823 -0.830672 0 0 0 255
0.0120044 -0.491223 1.37 0.497997 0.283514 -0.819523 0 0 0 255
0.0120044 -0.493761 1.37 0.4796 0.296869 -0.825744 0 0 0 255
0.0120044 -0.496299 1.37 0.477229 0.293619 -0.828276 0 0 0 255
0.0120044 -0.498837 1.37 0.477534 0.309932 -0.822133 0 0 0 255
0.0119606 -0.502074 1.365 0.526891 0.34141 -0.778347 0 0 0 255
0.0119606 -0.504602 1.365 0.521303 0.34336 -0.781247 0 0 0 255
0.0119606 -0.507131 1.365 0.525849 0.350274 -0.775107 0 0 0 255
0.0119081 -0.514971 1.359 0.517676 0.328714 -0.789911 0 0 0 255
0.0118642 -0.530634 1.354 0.532464 0.271791 -0.801631 0 0 0 255
0.0118642 -0.533142 1.354 0.532291 0.26205 -0.804982 0 0 0 255
0.0118642 -0.535651 1.354 0.530567 0.256448 -0.807919 0 0 0 255
0.0118204 -0.541169 1.349 0.494833 0.19523 -0.846773 0 0 0 255
0.0118204 -0.548666 1.349 0.505583 0.188264 -0.841987 0 0 0 255
0.0118204 -0.553664 1.349 0.491206 0.179636 -0.852319 0 0 0 255
0.0661113 -0.548706 1.387 0.528369 0.385659 -0.756369 0 0 0 255
0.00701455 -0.435655 1.387 0.542835 0.286368 -0.789508 0 0 0 255
0.00958398 -0.438224 1.387 0.537265 0.286331 -0.793323 0 0 0 255
0.00958398 -0.440794 1.387 0.536034 0.28521 -0.794558 0 0 0 255
0.00958398 -0.443363 1.387 0.540473 0.284104 -0.791943 0 0 0 255
0.00950797 -0.470434 1.376 0.503497 0.247619 -0.827753 0 0 0 255
0.00950797 -0.478081 1.376 0.497017 0.241814 -0.833367 0 0 0 255
0.00946651 -0.48361 1.37 0.514165 0.263996 -0.816052 0 0 0 255
0.00946651 -0.488686 1.37 0.50027 0.2887 -0.816322 0 0 0 255
0.00946651 -0.491223 1.37 0.496527 0.286727 -0.819297 0 0 0 255
0.00946651 -0.493761 1.37 0.493514 0.295937 -0.817841 0 0 0 255
0.00946651 -0.496299 1.37 0.50367 0.313741 -0.804912 0 0 0 255
0.00943196 -0.497016 1.365 0.539242 0.317576 -0.779977 0 0 0 255
0.00943196 -0.502074 1.365 0.535222 0.333139 -0.776245 0 0 0 255
0.00943196 -0.504602 1.365 0.539173 0.347093 -0.767346 0 0 0 255
0.00943196 -0.507131 1.365 0.526272 0.352202 -0.773945 0 0 0 255
0.0093905 -0.509937 1.359 0.517053 0.344092 -0.783746 0 0 0 255
0.00935595 -0.530634 1.354 0.534227 0.276186 -0.798951 0 0 0 255
0.0093214 -0.536171 1.349 0.506348 0.229848 -0.831133 0 0 0 255
0.0093214 -0.53867 1.349 0.48779 0.20604 -0.848297 0 0 0 255
0.0854918 -0.51079 1.41 0.521843 0.280936 -0.805453 0 0 0 255
0.0479171 -0.518192 1.381 0.573144 0.322167 -0.753468 0 0 0 255
0.00701455 -0.438224 1.387 0.544617 0.286305 -0.788303 0 0 0 255
0.00701455 -0.440794 1.387 0.544754 0.286073 -0.788292 0 0 0 255
0.00701455 -0.443363 1.387 0.544911 0.28575 -0.788301 0 0 0 255
0.00695892 -0.460238 1.376 0.521508 0.285045 -0.804225 0 0 0 255
0.00695892 -0.462787 1.376 0.518922 0.279129 -0.807965 0 0 0 255
0.00695892 -0.470434 1.376 0.510021 0.240725 -0.82579 0 0 0 255
0.00692858 -0.481072 1.37 0.507572 0.257415 -0.822258 0 0 0 255
0.00692858 -0.48361 1.37 0.507458 0.262795 -0.820625 0 0 0 255
0.00692858 -0.486148 1.37 0.506792 0.279111 -0.815634 0 0 0 255
0.00692858 -0.491223 1.37 0.514433 0.283533 -0.809301 0 0 0 255
0.00690329 -0.494488 1.365 0.526475 0.316121 -0.789235 0 0 0 255
0.00690329 -0.497016 1.365 0.547638 0.315998 -0.77475 0 0 0 255
0.00684766 -0.520601 1.354 0.545831 0.308509 -0.779032 0 0 0 255
0.00682237 -0.53867 1.349 0.49021 0.205607 -0.847006 0 0 0 255
0.00679203 -0.548714 1.343 0.515386 0.197861 -0.833803 0 0 0 255
0.00682237 -0.558662 1.349 0.492612 0.184019 -0.850571 0 0 0 255
0.00439065 -0.470921 1.37 0.52593 0.243691 -0.81487 0 0 0 255
0.00439065 -0.473459 1.37 0.51133 0.246731 -0.823205 0 0 0 255
0.00439065 -0.475997 1.37 0.507625 0.246978 -0.82542 0 0 0 255
0.00439065 -0.478534 1.37 0.507242 0.250402 -0.824624 0 0 0 255
0.00439065 -0.486148 1.37 0.516748 0.278099 -0.809711 0 0 0 255
0.00439065 -0.488686 1.37 0.516185 0.28574 -0.807407 0 0 0 255
0.00435539 -0.502384 1.359 0.539043 0.332214 -0.773994 0 0 0 255
0.00433937 -0.515585 1.354 0.543822 0.315581 -0.777603 0 0 0 255
0.00432335 -0.536171 1.349 0.491224 0.219158 -0.843011 0 0 0 255
0.00430412 -0.543738 1.343 0.518096 0.199805 -0.831657 0 0 0 255
0.00430412 -0.548714 1.343 0.515377 0.200028 -0.833292 0 0 0 255
0.00430412 -0.551201 1.343 0.518229 0.20215 -0.831008 0 0 0 255
0.00430412 -0.556177 1.343 0.502924 0.200906 -0.840657 0 0 0 255
0.0828797 -0.51079 1.41 0.521559 0.265929 -0.810714 0 0 0 255
0.00187571 -0.420239 1.387 0.537147 0.288071 -0.792773 0 0 0 255
0.00186083 -0.450043 1.376 0.542523 0.277977 -0.792715 0 0 0 255
0.00185272 -0.470921 1.37 0.525505 0.245721 -0.814534 0 0 0 255
0.00185272 -0.475997 1.37 0.509447 0.246456 -0.824453 0 0 0 255
0.00185272 -0.478534 1.37 0.503288 0.25704 -0.825004 0 0 0 255
0.00185272 -0.48361 1.37 0.508154 0.265989 -0.819164 0 0 0 255
0.00184596 -0.484374 1.365 0.514243 0.271596 -0.813504 0 0 0 255
0.00184596 -0.486902 1.365 0.525087 0.273178 -0.806013 0 0 0 255
0.00183108 -0.510569 1.354 0.542806 0.320856 -0.776152 0 0 0 255
0.00183108 -0.515585 1.354 0.547678 0.314692 -0.775254 0 0 0 255
0.00182432 -0.531174 1.349 0.513419 0.252684 -0.820092 0 0 0 255
0.00182432 -0.533673 1.349 0.486487 0.227568 -0.84353 0 0 0 255
0.0914235 -0.488451 1.421 0.519092 0.25682 -0.815222 0 0 0 255
-0.000688214 -0.447494 1.376 0.540211 0.278906 -0.793967 0 0 0 255
-0.000685213 -0.478534 1.37 0.515076 0.252538 -0.819098 0 0 0 255
-0.000682712 -0.481845 1.365 0.510905 0.273101 -0.815103 0 0 0 255
-0.000682712 -0.484374 1.365 0.518016 0.274211 -0.810227 0 0 0 255
0.0921365 -0.571312 1.392 0.412935 0.238541 -0.878967 0 0 0 255
-0.000682712 -0.486902 1.365 0.516236 0.274449 -0.811282 0 0 0 255
-0.000679712 -0.492314 1.359 0.554562 0.311921 -0.77147 0 0 0 255
-0.00067471 -0.526176 1.349 0.535246 0.280241 -0.796854 0 0 0 255
0.0220753 -0.517245 1.365 0.517619 0.309999 -0.797478 0 0 0 255
-0.00317374 -0.518679 1.349 0.539702 0.308434 -0.78332 0 0 0 255
0.0604889 -0.55455 1.376 0.524914 0.307303 -0.793744 0 0 0 255
0.0197041 -0.490826 1.376 0.45928 0.285647 -0.841111 0 0 0 255
0.0861587 -0.477922 1.421 0.5159 0.259514 -0.816394 0 0 0 255
0.0173546 -0.437226 1.392 0.542077 0.289083 -0.78904 0 0 0 255
0.0173546 -0.442383 1.392 0.542159 0.288895 -0.789052 0 0 0 255
0.0173546 -0.444961 1.392 0.542594 0.289202 -0.788641 0 0 0 255
0.0457201 -0.496533 1.392 0.550101 0.184295 -0.814509 0 0 0 255
0.0275699 -0.471626 1.387 0.527001 0.282145 -0.801663 0 0 0 255
0.0899438 -0.560826 1.398 0.440958 0.261725 -0.85852 0 0 0 255
0.143828 -0.518115 1.445 0.509894 0.300266 -0.806132 0 0 0 255
0.0663496 -0.537791 1.392 0.374573 0.299373 -0.877537 0 0 0 255
0.0895578 -0.571312 1.392 0.410888 0.246308 -0.877783 0 0 0 255
0.0218974 -0.545683 1.354 0.5317 0.242145 -0.811579 0 0 0 255
0.00698421 -0.446562 1.381 0.539848 0.292255 -0.789399 0 0 0 255
0.0400965 -0.526511 1.376 0.556562 0.28316 -0.781063 0 0 0 255
0.114629 -0.544055 1.415 0.507696 0.306794 -0.80506 0 0 0 255
0.0802677 -0.505566 1.41 0.516544 0.2672 -0.813502 0 0 0 255
0.0093214 -0.556163 1.349 0.493105 0.186085 -0.849835 0 0 0 255
0.0637709 -0.522319 1.392 0.402465 0.219359 -0.888765 0 0 0 255
0.0534562 -0.512005 1.392 0.523914 0.343407 -0.779478 0 0 0 255
0.0378476 -0.489611 1.387 0.581091 0.233236 -0.779701 0 0 0 255
0.0250906 -0.450119 1.392 0.535678 0.292863 -0.79201 0 0 0 255
0.0197041 -0.495924 1.376 0.470372 0.298881 -0.830313 0 0 0 255
0.00682237 -0.536171 1.349 0.48837 0.211626 -0.846586 0 0 0 255
0.0221562 -0.50645 1.37 0.491311 0.344394 -0.800004 0 0 0 255
0.0118204 -0.558662 1.349 0.478409 0.172243 -0.861079 0 0 0 255
0.0301394 -0.471626 1.387 0.526684 0.288654 -0.799552 0 0 0 255
0.0661113 -0.551275 1.387 0.540767 0.364599 -0.758049 0 0 0 255
0.0093214 -0.546167 1.349 0.511202 0.189002 -0.838422 0 0 0 255
0.0093214 -0.558662 1.349 0.485379 0.185007 -0.854506 0 0 0 255
0.0869791 -0.566155 1.392 0.398993 0.231784 -0.887175 0 0 0 255
0.00682237 -0.553664 1.349 0.498323 0.196749 -0.844372 0 0 0 255
0.0171551 -0.493375 1.376 0.46821 0.300642 -0.830899 0 0 0 255
0.0609724 -0.538428 1.387 0.521837 0.374512 -0.766438 0 0 0 255
0.058403 -0.535859 1.387 0.573895 0.307971 -0.758814 0 0 0 255
0.058403 -0.540998 1.387 0.547947 0.417729 -0.724746 0 0 0 255
0.101164 -0.539521 1.41 0.487156 0.315982 -0.814147 0 0 0 255
0.101164 -0.542133 1.41 0.486837 0.311754 -0.815965 0 0 0 255
0.0324494 -0.508669 1.376 0.550131 0.318924 -0.771779 0 0 0 255
0.040417 -0.507596 1.387 0.612019 0.30679 -0.728912 0 0 0 255
0.0835263 -0.472658 1.421 0.509784 0.254396 -0.821829 0 0 0 255
0.03219 -0.540002 1.365 0.543411 0.275221 -0.793069 0 0 0 255
0.104144 -0.528328 1.415 0.503779 0.299864 -0.810116 0 0 0 255
0.0959399 -0.526461 1.41 0.502345 0.302792 -0.809918 0 0 0 255
