ply
format ascii 1.0
element vertex 1007
property float x
property float y
property float z
property float normal_x
property float normal_y
property float normal_z
property uchar red
property uchar green
property uchar blue
property uchar alpha
end_header
0.417295 0.0208224 1.057 0 0 0 133 128 148 255
0.417295 0.019001 1.057 0 0 0 130 127 147 255
0.417295 0.0171797 1.057 0 0 0 132 129 146 255
0.417295 0.0153583 1.057 0 0 0 134 129 147 255
0.417295 0.013537 1.057 0 0 0 136 128 147 255
0.41665 0.0373202 1.06 0 0 0 127 122 140 255
0.41665 0.0354936 1.06 0 0 0 127 122 142 255
0.41665 0.0336671 1.06 0 0 0 127 121 144 255
0.41665 0.0318406 1.06 0 0 0 128 123 145 255
0.41665 0.0281876 1.06 0 0 0 129 126 147 255
0.41665 0.026361 1.06 0 0 0 131 125 145 255
0.41665 0.022708 1.06 0 0 0 132 127 144 255
0.41665 0.0208815 1.06 0 0 0 132 126 147 255
0.41665 0.019055 1.06 0 0 0 130 127 147 255
0.41665 0.0172284 1.06 0 0 0 132 129 146 255
0.415471 0.0153583 1.057 0 0 0 133 128 146 255
0.415471 0.013537 1.057 0 0 0 136 128 147 255
0.434981 0.0364048 1.034 0 0 0 128 123 143 255
0.414821 0.0281876 1.06 0 0 0 131 126 143 255
0.414821 0.0208815 1.06 0 0 0 132 126 149 255
0.414821 0.019055 1.06 0 0 0 132 126 151 255
0.414161 0.0355941 1.063 0 0 0 129 121 142 255
0.414161 0.0337624 1.063 0 0 0 129 121 142 255
0.414161 0.0319307 1.063 0 0 0 128 123 141 255
0.414161 0.0282673 1.063 0 0 0 130 125 142 255
0.415995 0.024604 1.063 0 0 0 130 127 147 255
0.415995 0.0227723 1.063 0 0 0 133 127 150 255
0.414161 0.0209406 1.063 0 0 0 132 126 149 255
0.414161 0.0154455 1.063 0 0 0 133 130 149 255
0.414161 0.0136138 1.063 0 0 0 134 129 149 255
0.413878 0.0338894 1.067 0 0 0 129 121 140 255
0.412326 0.030099 1.063 0 0 0 130 125 142 255
0.412326 0.0154455 1.063 0 0 0 134 129 149 255
0.412326 0.0136138 1.063 0 0 0 134 128 151 255
0.43074 0.0348574 1.041 0 0 0 128 123 141 255
0.412037 0.0302123 1.067 0 0 0 130 125 142 255
0.413878 0.0283737 1.067 0 0 0 131 126 143 255
0.413878 0.0191808 1.067 0 0 0 133 127 150 255
0.413878 0.0173422 1.067 0 0 0 134 128 151 255
0.412037 0.0155036 1.067 0 0 0 134 129 149 255
0.412037 0.013665 1.067 0 0 0 134 128 151 255
0.412037 0.0118265 1.067 0 0 0 134 128 153 255
0.411348 0.0302972 1.07 0 0 0 128 123 141 255
0.411348 0.0284535 1.07 0 0 0 131 125 145 255
0.411348 0.024766 1.07 0 0 0 130 127 147 255
0.410195 0.0210194 1.067 0 0 0 130 127 147 255
0.410195 0.0191808 1.067 0 0 0 132 126 147 255
0.410195 0.0173422 1.067 0 0 0 133 128 148 255
0.410195 0.0155036 1.067 0 0 0 134 129 149 255
0.410195 0.013665 1.067 0 0 0 134 129 149 255
0.410195 0.0118265 1.067 0 0 0 134 128 151 255
0.428943 0.0348574 1.041 0 0 0 128 123 141 255
0.428378 0.0331589 1.044 0 0 0 128 123 141 255
0.408798 0.0303822 1.073 0 0 0 130 124 144 255
0.408798 0.0266843 1.073 0 0 0 128 125 142 255
0.408798 0.0211376 1.073 0 0 0 130 127 149 255
0.408798 0.0192887 1.073 0 0 0 130 127 149 255
0.408798 0.0174397 1.073 0 0 0 133 128 148 255
0.408798 0.0155908 1.073 0 0 0 133 130 147 255
0.408798 0.0137419 1.073 0 0 0 133 129 153 255
0.426576 0.0331589 1.044 0 0 0 128 123 143 255
0.408464 0.0286396 1.077 0 0 0 130 125 142 255
0.408464 0.0267838 1.077 0 0 0 129 126 143 255
0.408464 0.024928 1.077 0 0 0 129 126 145 255
0.406947 0.0211376 1.073 0 0 0 129 126 147 255
0.406947 0.0192887 1.073 0 0 0 130 127 149 255
0.406947 0.0174397 1.073 0 0 0 133 128 148 255
0.406947 0.0155908 1.073 0 0 0 133 130 147 255
0.406947 0.0137419 1.073 0 0 0 133 129 153 255
0.406947 0.011893 1.073 0 0 0 134 130 156 255
0.406947 0.00819513 1.073 0 0 0 134 131 150 255
0.407738 0.0305804 1.08 0 0 0 126 123 142 255
0.407738 0.0287194 1.08 0 0 0 131 125 145 255
0.407738 0.0268584 1.08 0 0 0 131 125 145 255
0.407738 0.0249974 1.08 0 0 0 129 126 147 255
0.406605 0.0230722 1.077 0 0 0 129 126 145 255
0.406605 0.0193606 1.077 0 0 0 130 127 149 255
0.406605 0.0175047 1.077 0 0 0 133 128 148 255
0.406605 0.0156489 1.077 0 0 0 134 129 147 255
0.406605 0.0137931 1.077 0 0 0 133 130 149 255
0.406605 0.0100815 1.077 0 0 0 134 131 150 255
0.406605 0.00822568 1.077 0 0 0 134 131 150 255
0.406605 0.00636987 1.077 0 0 0 135 130 150 255
0.425404 0.0333495 1.05 0 0 0 128 123 143 255
0.407377 0.0288258 1.084 0 0 0 128 123 143 255
0.407377 0.0269579 1.084 0 0 0 130 124 144 255
0.407377 0.02509 1.084 0 0 0 129 126 147 255
0.405874 0.0231364 1.08 0 0 0 130 127 147 255
0.405874 0.0212755 1.08 0 0 0 130 127 149 255
0.404747 0.0100815 1.077 0 0 0 133 130 149 255
0.404747 0.00822568 1.077 0 0 0 133 130 149 255
0.404747 0.00636987 1.077 0 0 0 135 130 150 255
0.423592 0.0333495 1.05 0 0 0 128 123 143 255
0.405507 0.0288258 1.084 0 0 0 128 123 143 255
0.405507 0.0269579 1.084 0 0 0 128 123 145 255
0.405507 0.02509 1.084 0 0 0 129 126 147 255
0.405507 0.0232221 1.084 0 0 0 130 127 149 255
0.405507 0.0213543 1.084 0 0 0 130 127 149 255
0.405507 0.0194864 1.084 0 0 0 132 126 149 255
0.42178 0.0333495 1.05 0 0 0 128 123 145 255
0.404753 0.0270325 1.087 0 0 0 130 124 146 255
0.404753 0.0251595 1.087 0 0 0 129 126 147 255
0.404753 0.0232864 1.087 0 0 0 129 126 147 255
0.404753 0.0214134 1.087 0 0 0 130 127 149 255
0.404753 0.0195403 1.087 0 0 0 132 126 149 255
0.402877 0.0270325 1.087 0 0 0 130 124 144 255
0.402877 0.0251595 1.087 0 0 0 129 126 145 255
0.402877 0.0232864 1.087 0 0 0 131 125 145 255
0.402877 0.0214134 1.087 0 0 0 130 127 147 255
0.402877 0.0195403 1.087 0 0 0 132 126 147 255
0.402877 0.0176673 1.087 0 0 0 134 129 147 255
0.402877 0.0157942 1.087 0 0 0 134 129 147 255
0.402877 0.0139212 1.087 0 0 0 135 130 150 255
0.402877 0.00455597 1.087 0 0 0 137 131 149 255
0.402877 0.00268293 1.087 0 0 0 135 130 150 255
0.438751 0.0271771 1.022 0 0 0 131 125 145 255
0.421568 0.0298442 1.054 0 0 0 130 123 148 255
0.401001 0.0214134 1.087 0 0 0 130 127 147 255
0.401001 0.0195403 1.087 0 0 0 132 126 147 255
0.401001 0.0157942 1.087 0 0 0 134 129 147 255
0.401001 0.00642901 1.087 0 0 0 137 129 150 255
0.401001 0.00455597 1.087 0 0 0 135 130 148 255
0.401001 0.00268293 1.087 0 0 0 135 130 150 255
0.419749 0.028028 1.054 0 0 0 129 126 145 255
0.400227 0.0252289 1.09 0 0 0 131 125 145 255
0.400227 0.0233507 1.09 0 0 0 129 126 145 255
0.400227 0.00644676 1.09 0 0 0 134 129 147 255
0.398346 0.0252289 1.09 0 0 0 130 124 144 255
0.398346 0.0233507 1.09 0 0 0 128 125 144 255
0.398346 0.0214725 1.09 0 0 0 125 127 144 255
0.398346 0.0195943 1.09 0 0 0 129 126 147 255
0.399808 0.0102406 1.094 0 0 0 134 129 149 255
0.399808 0.00835552 1.094 0 0 0 134 129 149 255
0.399808 0.00647041 1.094 0 0 0 134 129 147 255
0.399808 0.00458531 1.094 0 0 0 133 128 146 255
0.398346 0.00269033 1.09 0 0 0 134 131 150 255
0.398346 0.000812117 1.09 0 0 0 135 130 150 255
0.39792 0.0253215 1.094 0 0 0 130 125 142 255
0.39792 0.0234364 1.094 0 0 0 130 124 146 255
0.39792 0.0215513 1.094 0 0 0 125 126 146 255
0.39792 0.0121257 1.094 0 0 0 133 128 148 255
0.39792 0.0102406 1.094 0 0 0 134 129 147 255
0.39792 0.00835552 1.094 0 0 0 136 128 149 255
0.39792 0.00647041 1.094 0 0 0 136 128 149 255
0.39792 0.00458531 1.094 0 0 0 134 129 149 255
0.39792 0.0027002 1.094 0 0 0 134 130 152 255
0.39792 0.000815098 1.094 0 0 0 134 130 152 255
0.397118 0.0235006 1.097 0 0 0 130 124 146 255
0.397118 0.0216104 1.097 0 0 0 126 127 147 255
0.39792 0.0196662 1.094 0 0 0 129 125 149 255
0.39792 0.017781 1.094 0 0 0 134 128 151 255
0.39792 0.0140108 1.094 0 0 0 132 129 146 255
0.397118 0.0102687 1.097 0 0 0 134 129 147 255
0.397118 0.00837843 1.097 0 0 0 135 127 148 255
0.397118 0.00648816 1.097 0 0 0 136 128 149 255
0.397118 0.00459788 1.097 0 0 0 134 129 149 255
0.397118 0.00270761 1.097 0 0 0 134 130 152 255
0.396032 -0.00107001 1.094 0 0 0 135 132 153 255
0.395225 0.0235006 1.097 0 0 0 130 125 138 255
0.395225 0.0216104 1.097 0 0 0 129 127 139 255
0.395225 -0.00107294 1.097 0 0 0 135 132 151 255
0.413878 0.0246965 1.067 0 0 0 129 126 145 255
0.392386 0.0141517 1.105 0 0 0 133 130 138 255
0.390966 0.000820313 1.101 0 0 0 134 131 150 255
0.39154 0.0103717 1.108 0 0 0 134 131 137 255
0.390479 0.00843953 1.105 0 0 0 135 131 144 255
0.390479 0.00653547 1.105 0 0 0 134 131 148 255
0.390479 0.00272735 1.105 0 0 0 135 132 151 255
0.390479 0.000823293 1.105 0 0 0 134 130 152 255
0.390479 -0.00108077 1.105 0 0 0 135 132 153 255
0.389066 -0.00297402 1.101 0 0 0 136 133 152 255
0.392089 0.0181224 1.115 0 0 0 130 106 73 255
0.388572 0.00653547 1.105 0 0 0 134 131 148 255
0.388572 0.00272735 1.105 0 0 0 135 132 151 255
0.388572 0.000823293 1.105 0 0 0 134 130 152 255
0.388572 -0.00488889 1.105 0 0 0 136 133 150 255
0.390165 0.0142798 1.115 0 0 0 155 132 110 255
0.390165 0.0123585 1.115 0 0 0 148 132 119 255
0.390165 0.00851591 1.115 0 0 0 134 131 139 255
0.389633 0.0162592 1.119 0 0 0 140 112 85 255
0.47387 0.101842 0.978 0 0 0 56 52 78 255
0.389088 0.0163173 1.123 0 0 0 150 121 78 255
0.38715 0.0124472 1.123 0 0 0 149 132 111 255
0.385771 0.0104746 1.119 0 0 0 137 132 125 255
0.385771 0.00854646 1.119 0 0 0 136 130 137 255
0.385771 0.00661828 1.119 0 0 0 133 131 143 255
0.385771 0.000833724 1.119 0 0 0 134 129 149 255
0.385771 -0.00109446 1.119 0 0 0 135 132 151 255
0.385771 -0.00302264 1.119 0 0 0 135 132 151 255
0.385771 -0.00495083 1.119 0 0 0 133 134 154 255
0.384392 -0.00877571 1.115 0 0 0 134 130 154 255
0.386241 0.0144207 1.126 0 0 0 166 132 100 255
0.385212 0.0105121 1.123 0 0 0 142 132 122 255
0.385212 0.00857701 1.123 0 0 0 136 131 135 255
0.385212 0.00664193 1.123 0 0 0 132 130 142 255
0.385212 0.00277178 1.123 0 0 0 133 130 147 255
0.385212 -0.00109837 1.123 0 0 0 135 130 150 255
0.383274 0.0105121 1.123 0 0 0 143 133 123 255
0.383274 0.00857701 1.123 0 0 0 135 130 134 255
0.383274 0.00664193 1.123 0 0 0 130 128 140 255
0.383274 -0.00883868 1.123 0 0 0 135 132 153 255
0.383274 -0.0107738 1.123 0 0 0 135 132 153 255
0.383274 -0.0127088 1.123 0 0 0 136 133 152 255
0.381763 0.0125248 1.13 0 0 0 151 129 93 255
0.379813 0.00863047 1.13 0 0 0 141 129 119 255
0.379813 0.00278906 1.13 0 0 0 134 129 147 255
0.379813 -0.00305236 1.13 0 0 0 135 132 149 255
0.379813 -0.0049995 1.13 0 0 0 138 133 150 255
0.379813 -0.00694663 1.13 0 0 0 137 131 149 255
0.379201 0.0106151 1.134 0 0 0 144 126 109 255
0.379201 0.00279893 1.134 0 0 0 134 129 147 255
0.377244 -0.00697122 1.134 0 0 0 138 133 150 255
0.377244 -0.00892525 1.134 0 0 0 139 134 151 255
0.377244 -0.0108793 1.134 0 0 0 139 135 147 255
0.377244 -0.0128333 1.134 0 0 0 139 134 151 255
0.377244 -0.0147873 1.134 0 0 0 137 135 151 255
0.377244 -0.0167414 1.134 0 0 0 136 133 150 255
0.375287 -0.0167414 1.134 0 0 0 137 135 151 255
0.374647 -0.0168004 1.138 0 0 0 139 134 151 255
0.374975 0.000853096 1.145 0 0 0 133 130 147 255
0.374975 -0.00111989 1.145 0 0 0 134 131 150 255
0.373665 -0.00898035 1.141 0 0 0 139 134 151 255
0.372999 0.00677205 1.145 0 0 0 138 129 118 255
0.372999 0.00479907 1.145 0 0 0 135 130 134 255
0.372999 0.00282608 1.145 0 0 0 134 131 139 255
0.372999 0.000853096 1.145 0 0 0 133 130 147 255
0.371696 -0.0129125 1.141 0 0 0 139 133 156 255
0.371696 -0.0148786 1.141 0 0 0 139 133 156 255
0.371023 0.00677205 1.145 0 0 0 138 129 118 255
0.37232 0.00481583 1.149 0 0 0 135 130 134 255
0.37232 0.00283595 1.149 0 0 0 133 130 138 255
0.37232 0.000856076 1.149 0 0 0 132 129 146 255
0.37232 -0.0011238 1.149 0 0 0 134 131 148 255
0.371023 -0.00901183 1.145 0 0 0 138 133 150 255
0.369727 -0.0129125 1.141 0 0 0 139 133 156 255
0.369727 -0.0148786 1.141 0 0 0 139 133 156 255
0.369727 -0.0168447 1.141 0 0 0 140 135 155 255
0.369727 -0.0188108 1.141 0 0 0 140 135 153 255
0.371626 0.0048326 1.153 0 0 0 135 130 134 255
0.371626 0.00284583 1.153 0 0 0 132 130 138 255
0.370337 0.000856076 1.149 0 0 0 134 130 143 255
0.370337 -0.0011238 1.149 0 0 0 135 131 144 255
0.370337 -0.00310368 1.149 0 0 0 137 131 149 255
0.369047 -0.00901183 1.145 0 0 0 135 132 149 255
0.369047 -0.0109848 1.145 0 0 0 135 132 149 255
0.369047 -0.0129578 1.145 0 0 0 136 133 150 255
0.369047 -0.0149308 1.145 0 0 0 136 133 150 255
0.369047 -0.0169038 1.145 0 0 0 137 135 151 255
0.369047 -0.0188768 1.145 0 0 0 137 134 153 255
0.369047 -0.0208497 1.145 0 0 0 139 136 153 255
0.367072 -0.0129578 1.145 0 0 0 136 133 150 255
0.367072 -0.0149308 1.145 0 0 0 135 132 149 255
0.367072 -0.0169038 1.145 0 0 0 137 135 151 255
0.367072 -0.0188768 1.145 0 0 0 137 134 153 255
0.367072 -0.0208497 1.145 0 0 0 137 135 151 255
0.366371 -0.0110232 1.149 0 0 0 136 133 150 255
0.366371 -0.0209226 1.149 0 0 0 137 134 153 255
0.366925 0.0028557 1.157 0 0 0 133 129 142 255
0.366925 0.000862037 1.157 0 0 0 135 130 150 255
0.366925 -0.00113163 1.157 0 0 0 134 129 147 255
0.366925 -0.00511895 1.157 0 0 0 137 130 144 255
0.365657 -0.0110616 1.153 0 0 0 136 133 150 255
0.365657 -0.0130483 1.153 0 0 0 136 133 150 255
0.365657 -0.0150351 1.153 0 0 0 134 136 153 255
0.36619 -0.00513665 1.161 0 0 0 135 130 148 255
0.36619 -0.0071372 1.161 0 0 0 135 130 148 255
0.364929 -0.0130936 1.157 0 0 0 136 133 154 255
0.364929 -0.0150873 1.157 0 0 0 137 133 158 255
0.364929 -0.0250556 1.157 0 0 0 140 135 153 255
0.365441 0.000867997 1.165 0 0 0 135 128 142 255
0.365441 -0.00113945 1.165 0 0 0 134 129 147 255
0.364187 -0.0131389 1.161 0 0 0 136 133 154 255
0.362932 -0.0210683 1.157 0 0 0 137 135 151 255
0.362932 -0.0230619 1.157 0 0 0 140 135 153 255
0.362932 -0.0250556 1.157 0 0 0 140 135 153 255
0.363431 -0.0071618 1.165 0 0 0 135 130 148 255
0.363431 -0.00916924 1.165 0 0 0 132 134 149 255
0.362183 -0.0231416 1.161 0 0 0 140 135 155 255
0.362183 -0.0251422 1.161 0 0 0 141 136 154 255
0.361421 -0.0131841 1.165 0 0 0 136 133 150 255
0.361421 -0.017199 1.165 0 0 0 139 134 151 255
0.361421 -0.0192065 1.165 0 0 0 138 133 150 255
0.361421 -0.0212139 1.165 0 0 0 138 133 150 255
0.361421 -0.0232214 1.165 0 0 0 139 133 153 255
0.360644 -0.0172581 1.169 0 0 0 139 134 151 255
0.35941 -0.0212139 1.165 0 0 0 138 132 154 255
0.35941 -0.0232214 1.165 0 0 0 140 134 157 255
0.358627 -0.0212868 1.169 0 0 0 139 133 156 255
0.358627 -0.0233011 1.169 0 0 0 141 135 158 255
0.35905 -0.00317931 1.177 0 0 0 133 128 146 255
0.35783 -0.0152959 1.173 0 0 0 137 135 151 255
0.357019 -0.00926369 1.177 0 0 0 135 130 148 255
0.355805 -0.0314658 1.173 0 0 0 139 137 149 255
0.451097 0.0888135 1.022 0 0 0 63 51 80 255
0.356194 -0.00522514 1.181 0 0 0 134 129 147 255
0.354988 -0.00723556 1.177 0 0 0 134 129 147 255
0.354988 -0.00926369 1.177 0 0 0 135 130 150 255
0.354988 -0.0112918 1.177 0 0 0 140 135 153 255
0.354988 -0.0133199 1.177 0 0 0 138 133 150 255
0.354988 -0.0214324 1.177 0 0 0 137 134 153 255
0.354156 -0.0113302 1.181 0 0 0 137 131 149 255
0.354156 -0.0133652 1.181 0 0 0 137 131 149 255
0.354156 -0.0154002 1.181 0 0 0 137 131 151 255
0.352118 -0.0255753 1.181 0 0 0 139 133 153 255
0.352451 -0.00730933 1.189 0 0 0 133 128 146 255
0.351265 -0.0154524 1.185 0 0 0 138 130 151 255
0.351265 -0.0215781 1.185 0 0 0 139 134 151 255
0.35008 -0.0235403 1.181 0 0 0 139 133 153 255
0.35008 -0.0255753 1.181 0 0 0 139 133 153 255
0.35008 -0.0337154 1.181 0 0 0 139 135 157 255
0.34922 -0.0317877 1.185 0 0 0 139 134 151 255
0.34922 -0.0338296 1.185 0 0 0 141 136 154 255
0.34922 -0.0358715 1.185 0 0 0 140 137 154 255
0.342428 -0.0382973 1.197 0 0 0 140 135 153 255
0.342428 -0.0403599 1.197 0 0 0 142 134 153 255
0.342922 -0.0136481 1.206 0 0 0 133 130 147 255
0.342922 -0.0157262 1.206 0 0 0 133 130 149 255
0.341785 -0.0301725 1.202 0 0 0 136 133 152 255
0.341785 -0.0322437 1.202 0 0 0 137 134 156 255
0.33971 -0.0425997 1.202 0 0 0 139 136 153 255
0.338759 -0.0240386 1.206 0 0 0 135 132 151 255
0.338759 -0.0281948 1.206 0 0 0 138 133 146 255
0.338759 -0.0302729 1.206 0 0 0 138 133 150 255
0.338759 -0.032351 1.206 0 0 0 139 134 151 255
0.338759 -0.0344291 1.206 0 0 0 139 133 153 255
0.337795 -0.0199484 1.21 0 0 0 134 131 150 255
0.337795 -0.0220334 1.21 0 0 0 137 131 149 255
0.337795 -0.0241183 1.21 0 0 0 135 132 151 255
0.337795 -0.0282883 1.21 0 0 0 137 132 145 255
0.337795 -0.0303733 1.21 0 0 0 138 133 150 255
0.337795 -0.0324583 1.21 0 0 0 139 134 151 255
0.335707 -0.0366283 1.21 0 0 0 139 134 151 255
0.335707 -0.0387133 1.21 0 0 0 140 135 153 255
0.335707 -0.0407983 1.21 0 0 0 140 135 153 255
0.335707 -0.0428832 1.21 0 0 0 139 136 153 255
0.334722 -0.0304737 1.214 0 0 0 138 133 150 255
0.333619 -0.0387133 1.21 0 0 0 140 135 153 255
0.354988 -0.0173762 1.177 0 0 0 139 134 151 255
0.354988 -0.0194043 1.177 0 0 0 137 135 151 255
0.331954 -0.0202286 1.227 0 0 0 133 130 147 255
0.352956 -0.0234606 1.177 0 0 0 139 133 153 255
0.328761 -0.0475588 1.223 0 0 0 139 136 153 255
0.327719 -0.0371429 1.227 0 0 0 136 134 146 255
0.327719 -0.0392572 1.227 0 0 0 136 133 150 255
0.32665 -0.0412366 1.223 0 0 0 136 133 150 255
0.32665 -0.043344 1.223 0 0 0 134 136 151 255
0.32665 -0.0454514 1.223 0 0 0 137 135 151 255
0.32665 -0.0475588 1.223 0 0 0 139 135 155 255
0.32665 -0.0496661 1.223 0 0 0 139 135 155 255
0.32665 -0.0517735 1.223 0 0 0 141 136 154 255
0.326928 -0.0288027 1.232 0 0 0 135 131 144 255
0.325601 -0.0371429 1.227 0 0 0 136 134 146 255
0.325601 -0.0392572 1.227 0 0 0 137 135 151 255
0.32454 -0.0412366 1.223 0 0 0 137 135 151 255
0.32454 -0.043344 1.223 0 0 0 134 136 151 255
0.32454 -0.0454514 1.223 0 0 0 137 135 151 255
0.32454 -0.0475588 1.223 0 0 0 140 137 156 255
0.32454 -0.0496661 1.223 0 0 0 141 138 157 255
0.325857 -0.0246366 1.236 0 0 0 135 130 148 255
0.325857 -0.0267664 1.236 0 0 0 135 131 144 255
0.325857 -0.0288962 1.236 0 0 0 135 131 144 255
0.323484 -0.0392572 1.227 0 0 0 139 134 151 255
0.323484 -0.0413715 1.227 0 0 0 137 135 151 255
0.323484 -0.0434857 1.227 0 0 0 134 136 151 255
0.323484 -0.0456 1.227 0 0 0 134 136 151 255
0.323484 -0.0477143 1.227 0 0 0 135 138 149 255
0.322429 -0.0496661 1.223 0 0 0 139 137 149 255
0.323724 -0.0246366 1.236 0 0 0 134 129 147 255
0.323724 -0.0267664 1.236 0 0 0 134 130 143 255
0.323724 -0.0288962 1.236 0 0 0 135 131 144 255
0.323724 -0.031026 1.236 0 0 0 137 133 141 255
0.323724 -0.0374153 1.236 0 0 0 136 133 150 255
0.322676 -0.0394171 1.232 0 0 0 139 134 151 255
0.322676 -0.04154 1.232 0 0 0 137 135 151 255
0.321366 -0.0434857 1.227 0 0 0 133 135 150 255
0.321366 -0.0456 1.227 0 0 0 134 136 151 255
0.321366 -0.0477143 1.227 0 0 0 135 138 149 255
0.321366 -0.0498286 1.227 0 0 0 139 137 149 255
0.321366 -0.0519429 1.227 0 0 0 140 138 150 255
0.322892 -0.0247362 1.241 0 0 0 133 128 146 255
0.322892 -0.0268747 1.241 0 0 0 134 130 143 255
0.322892 -0.0290131 1.241 0 0 0 135 130 148 255
0.321591 -0.031026 1.236 0 0 0 137 131 149 255
0.321591 -0.0374153 1.236 0 0 0 135 132 151 255
0.321591 -0.0395451 1.236 0 0 0 136 133 152 255
0.32055 -0.04154 1.232 0 0 0 136 133 152 255
0.32055 -0.0436629 1.232 0 0 0 134 136 151 255
0.32055 -0.0457858 1.232 0 0 0 134 136 151 255
0.32055 -0.0479087 1.232 0 0 0 139 136 153 255
0.32055 -0.0500316 1.232 0 0 0 139 137 149 255
0.319249 -0.0519429 1.227 0 0 0 135 137 153 255
0.32075 -0.0247362 1.241 0 0 0 133 128 146 255
0.32075 -0.0268747 1.241 0 0 0 134 130 143 255
0.32075 -0.0290131 1.241 0 0 0 135 130 148 255
0.32075 -0.0311515 1.241 0 0 0 135 130 148 255
0.32075 -0.0332899 1.241 0 0 0 137 131 149 255
0.319458 -0.0374153 1.236 0 0 0 135 132 151 255
0.319458 -0.0395451 1.236 0 0 0 135 132 151 255
0.319458 -0.0416749 1.236 0 0 0 136 133 152 255
0.318424 -0.0500316 1.232 0 0 0 137 135 147 255
0.318424 -0.0521545 1.232 0 0 0 135 137 153 255
0.318424 -0.0542774 1.232 0 0 0 139 135 155 255
0.318608 -0.0247362 1.241 0 0 0 133 129 142 255
0.318608 -0.0268747 1.241 0 0 0 133 131 143 255
0.318608 -0.0290131 1.241 0 0 0 133 130 147 255
0.318608 -0.0311515 1.241 0 0 0 134 131 148 255
0.318608 -0.0332899 1.241 0 0 0 137 131 149 255
0.318608 -0.0397051 1.241 0 0 0 135 132 153 255
0.317325 -0.0480643 1.236 0 0 0 137 135 147 255
0.317487 -0.0269613 1.245 0 0 0 132 130 142 255
0.317487 -0.0291066 1.245 0 0 0 133 130 147 255
0.316467 -0.0311515 1.241 0 0 0 134 131 148 255
0.316467 -0.0397051 1.241 0 0 0 135 132 153 255
0.316467 -0.0418435 1.241 0 0 0 136 132 156 255
0.316467 -0.0439819 1.241 0 0 0 133 134 154 255
0.316467 -0.0461203 1.241 0 0 0 133 135 150 255
0.316467 -0.0482587 1.241 0 0 0 137 135 147 255
0.316467 -0.0503971 1.241 0 0 0 138 135 140 255
0.315192 -0.0544537 1.236 0 0 0 139 135 147 255
0.315338 -0.0419784 1.245 0 0 0 136 133 150 255
0.315338 -0.0441237 1.245 0 0 0 136 133 150 255
0.315338 -0.046269 1.245 0 0 0 136 133 150 255
0.315338 -0.0484143 1.245 0 0 0 137 134 153 255
0.315338 -0.0527049 1.245 0 0 0 139 135 155 255
0.315338 -0.0548502 1.245 0 0 0 139 136 153 255
0.315338 -0.0569955 1.245 0 0 0 137 135 151 255
0.315338 -0.0591408 1.245 0 0 0 137 134 153 255
0.315705 -0.0293404 1.255 0 0 0 133 130 147 255
0.315705 -0.0315029 1.255 0 0 0 131 133 148 255
0.315705 -0.0336654 1.255 0 0 0 134 131 148 255
0.314448 -0.0356852 1.25 0 0 0 134 131 150 255
0.314448 -0.0464548 1.25 0 0 0 137 135 151 255
0.31354 -0.0293404 1.255 0 0 0 133 129 151 255
0.31354 -0.0315029 1.255 0 0 0 131 132 150 255
0.31354 -0.0336654 1.255 0 0 0 131 133 148 255
0.31354 -0.035828 1.255 0 0 0 131 133 148 255
0.31354 -0.0444781 1.255 0 0 0 136 133 150 255
0.31229 -0.0572244 1.25 0 0 0 139 133 153 255
0.312366 -0.0316033 1.259 0 0 0 131 132 150 255
0.312366 -0.0337727 1.259 0 0 0 131 133 148 255
0.312366 -0.0359421 1.259 0 0 0 131 133 148 255
0.311374 -0.0444781 1.255 0 0 0 134 131 148 255
0.311374 -0.0466406 1.255 0 0 0 137 135 147 255
0.311374 -0.0488031 1.255 0 0 0 137 135 151 255
0.311374 -0.0509657 1.255 0 0 0 137 135 151 255
0.310194 -0.0316033 1.259 0 0 0 130 132 147 255
0.310194 -0.0337727 1.259 0 0 0 130 132 147 255
0.310194 -0.0359421 1.259 0 0 0 131 133 148 255
0.310194 -0.0446198 1.259 0 0 0 137 131 149 255
0.310194 -0.0467893 1.259 0 0 0 138 133 150 255
0.310194 -0.0489587 1.259 0 0 0 137 135 147 255
0.309208 -0.0509657 1.255 0 0 0 138 133 146 255
0.309208 -0.0531282 1.255 0 0 0 139 134 151 255
0.309208 -0.0552907 1.255 0 0 0 139 134 151 255
0.309208 -0.0574533 1.255 0 0 0 140 135 153 255
0.309208 -0.0596158 1.255 0 0 0 139 134 151 255
0.309208 -0.0617783 1.255 0 0 0 139 134 151 255
0.309208 -0.0639408 1.255 0 0 0 140 135 155 255
0.309244 -0.0339068 1.264 0 0 0 130 132 147 255
0.309244 -0.0360849 1.264 0 0 0 131 133 148 255
0.308021 -0.0489587 1.259 0 0 0 136 134 146 255
0.308021 -0.0511281 1.259 0 0 0 137 132 145 255
0.308021 -0.0532975 1.259 0 0 0 138 133 150 255
0.308021 -0.0554669 1.259 0 0 0 138 133 150 255
0.308021 -0.0576364 1.259 0 0 0 138 133 150 255
0.307042 -0.0617783 1.255 0 0 0 139 134 151 255
0.307042 -0.0639408 1.255 0 0 0 139 133 153 255
0.307063 -0.0339068 1.264 0 0 0 133 131 143 255
0.307063 -0.0360849 1.264 0 0 0 134 132 144 255
0.307063 -0.0382629 1.264 0 0 0 133 130 147 255
0.307063 -0.040441 1.264 0 0 0 132 129 146 255
0.307063 -0.042619 1.264 0 0 0 135 130 148 255
0.305848 -0.0641446 1.259 0 0 0 137 135 147 255
0.305846 -0.038384 1.268 0 0 0 133 130 147 255
0.304882 -0.0578653 1.264 0 0 0 136 133 150 255
0.304882 -0.0600433 1.264 0 0 0 137 135 151 255
0.304882 -0.0622213 1.264 0 0 0 137 135 151 255
0.303676 -0.0641446 1.259 0 0 0 137 135 147 255
0.304855 -0.0407289 1.273 0 0 0 132 130 142 255
0.303658 -0.0471237 1.268 0 0 0 137 132 145 255
0.303658 -0.0493087 1.268 0 0 0 136 134 146 255
0.303658 -0.0514936 1.268 0 0 0 138 133 146 255
0.303658 -0.0536785 1.268 0 0 0 138 133 150 255
0.303658 -0.0602333 1.268 0 0 0 137 135 147 255
0.3027 -0.0622213 1.264 0 0 0 137 135 151 255
0.3027 -0.0643994 1.264 0 0 0 137 135 151 255
0.3027 -0.0665774 1.264 0 0 0 137 135 147 255
0.30147 -0.0646032 1.268 0 0 0 137 135 151 255
0.300462 -0.0670515 1.273 0 0 0 139 133 153 255
0.300462 -0.069245 1.273 0 0 0 136 133 150 255
0.299437 -0.043091 1.278 0 0 0 133 130 147 255
0.299437 -0.0496975 1.278 0 0 0 134 131 150 255
0.299437 -0.056304 1.278 0 0 0 136 134 146 255
0.298265 -0.0670515 1.273 0 0 0 140 135 155 255
0.298394 -0.0432596 1.283 0 0 0 130 132 143 255
0.298394 -0.0521027 1.283 0 0 0 137 131 149 255
0.298394 -0.0543135 1.283 0 0 0 138 133 150 255
0.297231 -0.0629105 1.278 0 0 0 138 133 150 255
0.297231 -0.0651127 1.278 0 0 0 138 133 150 255
0.297231 -0.0673148 1.278 0 0 0 136 133 150 255
0.297231 -0.069517 1.278 0 0 0 136 133 150 255
0.295026 -0.0673148 1.278 0 0 0 136 133 150 255
0.295026 -0.069517 1.278 0 0 0 135 132 149 255
0.295026 -0.0717192 1.278 0 0 0 136 133 150 255
0.293966 -0.069789 1.283 0 0 0 136 132 156 255
0.293966 -0.0719998 1.283 0 0 0 137 134 153 255
0.293798 -0.0546945 1.292 0 0 0 134 131 150 255
0.292889 -0.0700609 1.288 0 0 0 137 133 158 255
0.292697 -0.0437317 1.297 0 0 0 127 129 144 255
0.292697 -0.0459666 1.297 0 0 0 130 132 147 255
0.292697 -0.0482015 1.297 0 0 0 133 131 143 255
0.466409 0.0526998 0.973 0 0 0 125 120 138 255
0.289332 -0.0506308 1.302 0 0 0 133 131 143 255
0.289332 -0.0528743 1.302 0 0 0 133 131 143 255
0.28822 -0.0660807 1.297 0 0 0 138 133 150 255
0.284838 -0.068579 1.302 0 0 0 134 131 148 255
0.284838 -0.0708225 1.302 0 0 0 135 132 149 255
0.283676 -0.0643381 1.307 0 0 0 137 132 145 255
0.283676 -0.0710945 1.307 0 0 0 135 132 149 255
0.392866 0.0122033 1.101 0 0 0 134 128 134 255
0.392866 0.0103062 1.101 0 0 0 136 130 139 255
0.390966 0.00271748 1.101 0 0 0 134 130 152 255
0.390966 -0.00297402 1.101 0 0 0 135 132 149 255
0.359854 -0.00923221 1.173 0 0 0 134 131 148 255
0.281301 -0.0580222 1.317 0 0 0 132 130 142 255
0.280233 -0.0713664 1.312 0 0 0 135 132 149 255
0.280233 -0.0736272 1.312 0 0 0 136 133 150 255
0.280233 -0.0758879 1.312 0 0 0 136 133 150 255
0.279028 -0.0670997 1.317 0 0 0 131 132 150 255
0.279028 -0.069369 1.317 0 0 0 132 133 153 255
0.277969 -0.0781487 1.312 0 0 0 138 133 150 255
0.277969 -0.0804094 1.312 0 0 0 135 133 145 255
0.277969 -0.0826702 1.312 0 0 0 136 133 150 255
0.277969 -0.0849309 1.312 0 0 0 136 133 150 255
0.389115 -0.00300374 1.112 0 0 0 135 132 151 255
0.273217 -0.0587271 1.333 0 0 0 132 128 136 255
0.380412 0.00471943 1.126 0 0 0 134 128 151 255
0.452192 0.0473169 1.001 0 0 0 125 121 141 255
0.452192 0.045592 1.001 0 0 0 128 120 139 255
0.45392 0.0507666 1.001 0 0 0 123 120 140 255
0.45392 0.0490417 1.001 0 0 0 123 120 140 255
0.351265 -0.0174943 1.185 0 0 0 137 131 149 255
0.451815 0.0491887 1.004 0 0 0 124 119 136 255
0.450082 0.0457287 1.004 0 0 0 126 120 143 255
0.265006 -0.0912251 1.338 0 0 0 131 133 148 255
0.375634 -0.00701426 1.141 0 0 0 138 133 150 255
0.373665 -0.00701426 1.141 0 0 0 137 131 149 255
0.373665 -0.0109464 1.141 0 0 0 138 133 150 255
0.373665 -0.0129125 1.141 0 0 0 138 133 150 255
0.373665 -0.0148786 1.141 0 0 0 138 133 150 255
0.373665 -0.0168447 1.141 0 0 0 139 134 151 255
0.371696 -0.0168447 1.141 0 0 0 140 135 155 255
0.371696 -0.0188108 1.141 0 0 0 139 134 151 255
0.258828 -0.0806504 1.354 0 0 0 133 130 147 255
0.256491 -0.0946491 1.354 0 0 0 133 130 147 255
0.368922 0.0028557 1.157 0 0 0 133 129 142 255
0.368922 0.000862037 1.157 0 0 0 134 129 149 255
0.368922 -0.00113163 1.157 0 0 0 134 129 147 255
0.34656 -0.019734 1.197 0 0 0 138 133 146 255
0.36619 -0.00113554 1.161 0 0 0 134 129 147 255
0.36619 -0.00313609 1.161 0 0 0 134 129 147 255
0.366925 -0.00312529 1.157 0 0 0 133 129 142 255
0.253864 -0.0742494 1.365 0 0 0 129 127 139 255
0.253864 -0.0766014 1.365 0 0 0 129 128 135 255
0.253864 -0.0789535 1.365 0 0 0 128 127 132 255
0.252748 -0.0996821 1.359 0 0 0 133 130 147 255
0.252748 -0.102024 1.359 0 0 0 133 131 143 255
0.28822 -0.0638458 1.297 0 0 0 139 131 152 255
0.25243 -0.0721607 1.37 0 0 0 126 130 135 255
0.251508 -0.0813056 1.365 0 0 0 132 128 136 255
0.251508 -0.0860097 1.365 0 0 0 129 127 139 255
0.28822 -0.0616109 1.297 0 0 0 137 131 153 255
0.250065 -0.0839641 1.37 0 0 0 129 127 139 255
0.250065 -0.0863248 1.37 0 0 0 129 127 139 255
0.248786 -0.0724767 1.376 0 0 0 125 128 138 255
0.359854 -0.00721098 1.173 0 0 0 135 131 144 255
0.247307 -0.07274 1.381 0 0 0 124 127 137 255
0.35783 -0.0112534 1.173 0 0 0 137 132 145 255
0.357019 -0.00317931 1.177 0 0 0 132 127 144 255
0.357019 -0.00723556 1.177 0 0 0 134 129 147 255
0.357019 -0.0112918 1.177 0 0 0 138 133 146 255
0.357019 -0.0133199 1.177 0 0 0 137 135 151 255
0.241201 -0.089786 1.387 0 0 0 126 129 139 255
0.238807 -0.104126 1.387 0 0 0 130 128 144 255
0.347461 -0.0237795 1.193 0 0 0 141 134 147 255
0.345402 -0.0361137 1.193 0 0 0 141 135 158 255
0.232042 -0.0933057 1.404 0 0 0 128 126 138 255
0.232042 -0.095725 1.404 0 0 0 128 126 138 255
0.231051 -0.112178 1.398 0 0 0 129 126 143 255
0.231051 -0.114587 1.398 0 0 0 128 125 142 255
0.231051 -0.116996 1.398 0 0 0 126 128 143 255
0.343343 -0.034058 1.193 0 0 0 140 135 153 255
0.343343 -0.0361137 1.193 0 0 0 140 135 155 255
0.343343 -0.0381694 1.193 0 0 0 140 135 153 255
0.392866 0.00651182 1.101 0 0 0 135 130 148 255
0.22962 -0.107821 1.404 0 0 0 128 126 138 255
0.276756 -0.0784465 1.317 0 0 0 137 131 149 255
0.227197 -0.115079 1.404 0 0 0 128 125 142 255
0.227197 -0.117498 1.404 0 0 0 128 126 138 255
0.227197 -0.119918 1.404 0 0 0 131 127 135 255
0.227197 -0.122337 1.404 0 0 0 131 126 139 255
0.390966 0.00461465 1.101 0 0 0 133 129 153 255
0.339883 -0.0157784 1.21 0 0 0 133 129 151 255
0.339883 -0.0178634 1.21 0 0 0 134 131 150 255
0.339883 -0.0199484 1.21 0 0 0 134 131 150 255
0.425995 0.0332542 1.047 0 0 0 128 123 143 255
0.425995 0.0314501 1.047 0 0 0 130 124 144 255
0.425995 0.029646 1.047 0 0 0 130 124 144 255
0.425995 0.0278419 1.047 0 0 0 131 126 143 255
0.335707 -0.0282883 1.21 0 0 0 137 131 149 255
0.335707 -0.0303733 1.21 0 0 0 139 134 151 255
0.335707 -0.0324583 1.21 0 0 0 139 134 151 255
0.335707 -0.0345433 1.21 0 0 0 139 134 151 255
0.333619 -0.0407983 1.21 0 0 0 140 135 153 255
0.333619 -0.0428832 1.21 0 0 0 139 136 153 255
0.333619 -0.0449682 1.21 0 0 0 141 136 156 255
0.414821 0.0373202 1.06 0 0 0 128 120 141 255
0.414821 0.0354936 1.06 0 0 0 129 121 142 255
0.414821 0.0336671 1.06 0 0 0 129 121 142 255
0.414821 0.0318406 1.06 0 0 0 128 123 141 255
0.414821 0.026361 1.06 0 0 0 131 125 145 255
0.385212 0.000836705 1.123 0 0 0 133 130 149 255
0.324802 -0.0351713 1.232 0 0 0 137 135 147 255
0.324802 -0.0372942 1.232 0 0 0 137 135 151 255
0.409502 0.0210785 1.07 0 0 0 130 127 147 255
0.409502 0.0192347 1.07 0 0 0 132 126 147 255
0.404747 0.0137931 1.077 0 0 0 133 130 149 255
0.316605 -0.0292235 1.25 0 0 0 133 130 147 255
0.316605 -0.0313774 1.25 0 0 0 131 133 148 255
0.316605 -0.0335313 1.25 0 0 0 134 131 148 255
0.403636 0.0176185 1.084 0 0 0 133 128 148 255
0.403636 0.0157506 1.084 0 0 0 134 129 147 255
0.403636 0.0138828 1.084 0 0 0 135 130 150 255
0.314448 -0.042147 1.25 0 0 0 134 131 148 255
0.314448 -0.0443009 1.25 0 0 0 136 133 150 255
0.314448 -0.0486087 1.25 0 0 0 137 134 153 255
0.314448 -0.0507626 1.25 0 0 0 137 134 153 255
0.314448 -0.0529165 1.25 0 0 0 139 135 155 255
0.31229 -0.0529165 1.25 0 0 0 137 134 153 255
0.31229 -0.0550704 1.25 0 0 0 137 135 151 255
0.31229 -0.0593783 1.25 0 0 0 139 133 156 255
0.31229 -0.0615322 1.25 0 0 0 139 133 158 255
0.311374 -0.0531282 1.255 0 0 0 137 134 153 255
0.311374 -0.0552907 1.255 0 0 0 137 135 151 255
0.311374 -0.0574533 1.255 0 0 0 140 135 155 255
0.237266 -0.0949068 1.392 0 0 0 129 126 143 255
0.237266 -0.0973054 1.392 0 0 0 130 128 140 255
0.303658 -0.0558635 1.268 0 0 0 136 133 150 255
0.303658 -0.0580484 1.268 0 0 0 137 135 151 255
0.298265 -0.069245 1.273 0 0 0 137 135 151 255
0.289332 -0.0461438 1.302 0 0 0 133 128 146 255
0.424274 0.069016 1.07 0 0 0 107 87 96 255
0.473126 0.0879085 0.973 0 0 0 109 106 126 255
0.392866 0.00461465 1.101 0 0 0 133 129 153 255
0.468551 0.0852505 0.981 0 0 0 111 107 129 255
0.326928 -0.0330484 1.232 0 0 0 138 134 142 255
0.277806 -0.0627985 1.322 0 0 0 132 129 146 255
0.276756 -0.0739078 1.317 0 0 0 132 133 153 255
0.276756 -0.0761771 1.317 0 0 0 136 133 150 255
0.276756 -0.0807159 1.317 0 0 0 135 133 145 255
0.420575 0.0188213 1.047 0 0 0 130 128 140 255
0.463534 0.0827877 0.992 0 0 0 111 108 125 255
0.323724 -0.0352855 1.236 0 0 0 136 134 146 255
0.461171 0.0815688 0.998 0 0 0 112 107 127 255
0.321591 -0.0352855 1.236 0 0 0 138 133 150 255
0.385771 0.00469009 1.119 0 0 0 134 129 147 255
0.400227 0.0139596 1.09 0 0 0 133 130 149 255
0.400227 0.0102032 1.09 0 0 0 134 129 149 255
0.400227 0.00832497 1.09 0 0 0 134 129 149 255
0.281301 -0.0512141 1.317 0 0 0 130 128 140 255
0.281301 -0.0534835 1.317 0 0 0 133 130 138 255
0.281301 -0.0557529 1.317 0 0 0 133 131 143 255
0.364388 -0.0169628 1.149 0 0 0 134 136 151 255
0.279028 -0.0648303 1.317 0 0 0 131 133 148 255
0.381763 -0.00305236 1.13 0 0 0 137 131 151 255
0.465431 0.0512853 0.978 0 0 0 122 119 136 255
0.463743 0.0512853 0.978 0 0 0 122 119 138 255
0.448014 0.0709941 1.019 0 0 0 113 108 128 255
0.315338 -0.0398331 1.245 0 0 0 135 132 149 255
0.454974 0.0486008 0.992 0 0 0 125 119 140 255
0.454282 0.0471751 0.998 0 0 0 125 120 138 255
0.452559 0.0471751 0.998 0 0 0 125 121 141 255
0.397118 0.000817333 1.097 0 0 0 135 132 153 255
0.395225 0.00837843 1.097 0 0 0 136 128 147 255
0.340841 -0.0261167 1.206 0 0 0 133 135 152 255
0.449689 0.0423949 1.007 0 0 0 125 121 141 255
0.392953 0.0180736 1.112 0 0 0 133 108 75 255
0.445806 0.0606368 1.022 0 0 0 119 114 132 255
0.444042 0.0588758 1.022 0 0 0 119 114 132 255
0.338759 -0.0261167 1.206 0 0 0 132 134 149 255
0.447952 0.0423949 1.007 0 0 0 125 121 141 255
0.354156 -0.00522514 1.181 0 0 0 134 129 147 255
0.354156 -0.00929517 1.181 0 0 0 135 130 150 255
0.308021 -0.0424504 1.259 0 0 0 135 130 148 255
0.364929 -0.0110999 1.157 0 0 0 135 132 151 255
0.336817 -0.0221062 1.214 0 0 0 137 131 149 255
0.392866 0.00840898 1.101 0 0 0 134 130 143 255
0.352956 -0.0214324 1.177 0 0 0 137 134 153 255
0.390479 0.00463141 1.105 0 0 0 135 130 148 255
0.44188 0.040902 1.013 0 0 0 127 122 142 255
0.441435 0.0392724 1.016 0 0 0 128 123 141 255
0.388572 0.00463141 1.105 0 0 0 135 130 148 255
0.366371 -0.0130031 1.149 0 0 0 136 133 150 255
0.366371 -0.0149829 1.149 0 0 0 133 135 152 255
0.366371 -0.0169628 1.149 0 0 0 134 136 151 255
0.366371 -0.0189427 1.149 0 0 0 134 136 151 255
0.476484 0.102998 0.973 0 0 0 63 56 69 255
0.360644 -0.0152437 1.169 0 0 0 139 134 151 255
0.247701 -0.0957676 1.37 0 0 0 128 130 146 255
0.247701 -0.0981282 1.37 0 0 0 133 129 142 255
0.247701 -0.100489 1.37 0 0 0 133 130 138 255
0.281421 -0.080103 1.307 0 0 0 135 132 149 255
0.281421 -0.0823551 1.307 0 0 0 136 133 152 255
0.381158 0.0106151 1.134 0 0 0 145 127 110 255
0.381158 0.00475296 1.134 0 0 0 136 129 143 255
0.394293 0.0198639 1.105 0 0 0 134 124 143 255
0.394293 0.0179598 1.105 0 0 0 134 124 141 255
0.392386 0.0179598 1.105 0 0 0 127 117 134 255
0.392386 0.0122477 1.105 0 0 0 134 128 134 255
0.407655 0.0118597 1.07 0 0 0 133 128 155 255
0.375634 -0.00504816 1.141 0 0 0 138 132 152 255
0.390479 0.021768 1.105 0 0 0 137 107 69 255
0.390479 0.0198639 1.105 0 0 0 130 108 72 255
0.373665 -0.00504816 1.141 0 0 0 137 131 151 255
0.372999 -0.00703885 1.145 0 0 0 137 131 149 255
0.371023 -0.00703885 1.145 0 0 0 138 133 150 255
0.369047 -0.00703885 1.145 0 0 0 137 131 149 255
0.311374 -0.0379905 1.255 0 0 0 131 133 148 255
0.367646 -0.0090748 1.153 0 0 0 135 132 149 255
0.462893 0.0953263 0.998 0 0 0 59 52 70 255
0.365657 -0.0090748 1.153 0 0 0 135 132 149 255
0.41065 0.0248354 1.073 0 0 0 130 127 147 255
0.285932 -0.0553295 1.307 0 0 0 134 130 143 255
0.323724 -0.0331558 1.236 0 0 0 138 134 142 255
0.385771 0.00276191 1.119 0 0 0 135 130 148 255
0.321591 -0.0331558 1.236 0 0 0 137 131 149 255
0.31354 -0.0423155 1.255 0 0 0 135 132 149 255
0.337795 -0.0262033 1.21 0 0 0 132 134 149 255
0.311374 -0.0423155 1.255 0 0 0 134 131 148 255
0.310194 -0.0424504 1.259 0 0 0 135 130 148 255
0.35008 -0.0276103 1.181 0 0 0 141 132 156 255
0.35008 -0.0296454 1.181 0 0 0 142 133 157 255
0.35008 -0.0316804 1.181 0 0 0 140 134 159 255
0.368354 -0.00706344 1.149 0 0 0 135 130 148 255
0.368354 -0.00904331 1.149 0 0 0 135 132 149 255
0.368354 -0.0110232 1.149 0 0 0 136 133 150 255
0.397118 0.012159 1.097 0 0 0 132 126 147 255
0.395225 0.012159 1.097 0 0 0 132 127 144 255
0.248786 -0.0772187 1.376 0 0 0 130 128 140 255
0.364929 -0.0170809 1.157 0 0 0 137 134 153 255
0.364929 -0.0190746 1.157 0 0 0 139 133 153 255
0.364929 -0.0210683 1.157 0 0 0 137 135 151 255
0.364929 -0.0230619 1.157 0 0 0 139 134 151 255
0.303658 -0.0427539 1.268 0 0 0 133 130 147 255
0.364187 -0.0111383 1.161 0 0 0 135 132 151 255
0.24254 -0.0965365 1.381 0 0 0 130 129 136 255
0.24254 -0.0989161 1.381 0 0 0 132 128 136 255
0.240157 -0.0941568 1.381 0 0 0 129 126 143 255
0.240157 -0.0965365 1.381 0 0 0 130 128 144 255
0.299437 -0.0474954 1.278 0 0 0 137 131 151 255
0.318608 -0.0375667 1.241 0 0 0 135 132 153 255
0.366925 -0.00711262 1.157 0 0 0 135 130 148 255
0.316467 -0.0375667 1.241 0 0 0 135 132 153 255
0.282497 -0.0555412 1.312 0 0 0 133 131 143 255
0.392089 0.0162011 1.115 0 0 0 129 110 75 255
0.308021 -0.0598058 1.259 0 0 0 139 134 151 255
0.390165 0.0162011 1.115 0 0 0 140 112 85 255
0.456258 0.0912514 1.01 0 0 0 60 53 71 255
0.369636 0.00284583 1.153 0 0 0 132 130 138 255
0.388572 -0.00108077 1.105 0 0 0 135 132 153 255
0.388572 -0.00298483 1.105 0 0 0 136 133 152 255
0.409502 0.0137035 1.07 0 0 0 133 128 148 255
0.305848 -0.0576364 1.259 0 0 0 137 135 151 255
0.303658 -0.0449388 1.268 0 0 0 137 131 149 255
0.284838 -0.0753095 1.302 0 0 0 137 135 151 255
0.284838 -0.077553 1.302 0 0 0 139 135 147 255
0.283676 -0.0665902 1.307 0 0 0 135 132 149 255
0.283676 -0.0688423 1.307 0 0 0 135 132 149 255
0.284761 -0.0510197 1.312 0 0 0 132 130 138 255
0.427024 0.0443736 1.054 0 0 0 124 119 136 255
0.31354 -0.0379905 1.255 0 0 0 131 133 148 255
0.307063 -0.044797 1.264 0 0 0 139 134 151 255
0.345402 -0.034058 1.193 0 0 0 140 137 156 255
0.456004 0.0574932 0.998 0 0 0 123 118 135 255
0.456004 0.0557735 0.998 0 0 0 121 116 136 255
0.456004 0.0523341 0.998 0 0 0 124 118 138 255
0.454282 0.0574932 0.998 0 0 0 121 116 134 255
0.454282 0.0557735 0.998 0 0 0 121 116 136 255
0.361421 -0.0151916 1.165 0 0 0 139 134 151 255
0.379201 0.00866102 1.134 0 0 0 141 129 119 255
0.379201 0.00670699 1.134 0 0 0 136 129 132 255
0.379201 0.00475296 1.134 0 0 0 136 129 143 255
0.379201 0.0008449 1.134 0 0 0 135 130 148 255
0.379201 -0.00501719 1.134 0 0 0 138 133 150 255
0.379813 -0.00889377 1.13 0 0 0 138 133 150 255
0.379813 -0.0108409 1.13 0 0 0 138 132 152 255
0.379813 -0.012788 1.13 0 0 0 139 134 151 255
0.379813 -0.0147352 1.13 0 0 0 139 134 151 255
0.377863 -0.00694663 1.13 0 0 0 138 133 150 255
0.377863 -0.00889377 1.13 0 0 0 138 133 150 255
0.377863 -0.0108409 1.13 0 0 0 137 131 151 255
0.377863 -0.012788 1.13 0 0 0 138 133 150 255
0.377863 -0.0147352 1.13 0 0 0 139 134 151 255
0.403636 0.00827914 1.084 0 0 0 133 129 151 255
0.392386 0.021768 1.105 0 0 0 132 122 141 255
0.392386 0.0198639 1.105 0 0 0 129 119 139 255
0.394766 0.0103062 1.101 0 0 0 136 128 147 255
0.394766 0.00840898 1.101 0 0 0 136 128 147 255
0.394766 0.00651182 1.101 0 0 0 134 129 147 255
0.390966 0.0103062 1.101 0 0 0 136 130 139 255
0.390966 0.00840898 1.101 0 0 0 135 131 144 255
0.390966 0.00651182 1.101 0 0 0 135 130 148 255
0.472077 0.0555345 0.964 0 0 0 121 118 135 255
0.296028 -0.0435631 1.292 0 0 0 128 131 142 255
0.46875 0.0555345 0.964 0 0 0 121 118 135 255
0.29618 -0.0653674 1.283 0 0 0 138 133 150 255
0.304882 -0.042619 1.264 0 0 0 135 130 148 255
0.305848 -0.0598058 1.259 0 0 0 137 135 151 255
0.305848 -0.0619752 1.259 0 0 0 137 135 151 255
0.470733 0.083049 0.975 0 0 0 111 107 127 255
0.46178 0.0497523 0.981 0 0 0 125 119 140 255
0.290459 -0.0504364 1.297 0 0 0 133 130 147 255
0.459796 0.0465133 0.984 0 0 0 126 123 142 255
0.457791 0.0466551 0.987 0 0 0 127 122 140 255
0.466588 0.0804245 0.984 0 0 0 112 109 124 255
0.466307 0.078969 0.987 0 0 0 112 109 128 255
0.345402 -0.0258352 1.193 0 0 0 141 134 147 255
0.345402 -0.0278909 1.193 0 0 0 138 133 150 255
0.345402 -0.0299466 1.193 0 0 0 139 134 151 255
0.345402 -0.0320023 1.193 0 0 0 140 135 153 255
0.46489 0.06686 0.984 0 0 0 118 115 132 255
0.350925 -0.0275168 1.177 0 0 0 141 132 156 255
0.238807 -0.0993459 1.387 0 0 0 133 128 148 255
0.381763 0.00278906 1.13 0 0 0 133 129 151 255
0.381763 -0.00110522 1.13 0 0 0 135 130 150 255
0.393332 -0.00107294 1.097 0 0 0 135 132 151 255
0.391439 -0.00107294 1.097 0 0 0 135 132 151 255
0.431412 0.0328413 1.034 0 0 0 131 126 143 255
0.43074 0.0312699 1.041 0 0 0 130 125 142 255
0.300608 -0.0388381 1.283 0 0 0 133 131 143 255
0.300608 -0.0410489 1.283 0 0 0 133 130 147 255
0.28822 -0.0727854 1.297 0 0 0 136 133 150 255
0.287085 -0.0596049 1.302 0 0 0 135 130 150 255
0.425404 0.0297309 1.05 0 0 0 130 124 144 255
0.285982 -0.0638458 1.297 0 0 0 141 133 153 255
0.285982 -0.0727854 1.297 0 0 0 136 133 150 255
0.285982 -0.0750203 1.297 0 0 0 139 134 151 255
0.285982 -0.0772552 1.297 0 0 0 139 134 151 255
0.285982 -0.0794901 1.297 0 0 0 138 133 150 255
0.423592 0.0297309 1.05 0 0 0 130 124 144 255
0.289332 -0.0483873 1.302 0 0 0 134 129 147 255
0.319458 -0.0480643 1.236 0 0 0 137 135 151 255
0.4343 0.0806972 1.054 0 0 0 58 55 76 255
0.34656 -0.0176715 1.197 0 0 0 137 131 149 255
0.42178 0.0297309 1.05 0 0 0 130 123 148 255
0.41665 0.0245345 1.06 0 0 0 130 127 147 255
0.336817 -0.0200143 1.214 0 0 0 135 130 148 255
0.336817 -0.0241981 1.214 0 0 0 137 131 149 255
0.336678 -0.0385853 1.206 0 0 0 141 133 151 255
0.458378 0.0875099 1.007 0 0 0 114 105 117 255
0.301642 -0.0496975 1.278 0 0 0 135 132 151 255
0.413878 0.022858 1.067 0 0 0 131 125 145 255
0.457013 0.0803291 1.004 0 0 0 108 105 126 255
0.431416 0.0512954 1.047 0 0 0 120 117 136 255
0.431416 0.0494913 1.047 0 0 0 123 117 137 255
0.425205 0.0389251 1.054 0 0 0 126 122 135 255
0.425205 0.0371089 1.054 0 0 0 127 122 140 255
0.427802 0.0350583 1.047 0 0 0 126 123 142 255
0.473126 0.0828787 0.973 0 0 0 109 106 128 255
0.405874 0.0175535 1.08 0 0 0 133 128 148 255
0.425995 0.0350583 1.047 0 0 0 127 124 143 255
0.425995 0.0224295 1.047 0 0 0 130 128 144 255
0.425995 0.0206254 1.047 0 0 0 127 129 147 255
0.424188 0.0188213 1.047 0 0 0 132 128 148 255
0.420575 0.0224295 1.047 0 0 0 130 127 147 255
0.420575 0.0206254 1.047 0 0 0 127 129 144 255
0.249153 -0.104826 1.365 0 0 0 133 131 143 255
0.394293 0.021768 1.105 0 0 0 134 124 143 255
0.430662 0.0625354 1.054 0 0 0 116 111 128 255
0.377603 0.0047823 1.141 0 0 0 135 128 142 255
0.377603 0.00281621 1.141 0 0 0 132 130 142 255
0.317325 -0.0523239 1.236 0 0 0 140 137 145 255
0.391034 0.008493 1.112 0 0 0 134 130 143 255
0.388241 0.00851591 1.115 0 0 0 134 131 139 255
0.408464 0.0304954 1.077 0 0 0 128 123 143 255
0.386317 0.00659462 1.115 0 0 0 133 131 143 255
0.468551 0.0767985 0.981 0 0 0 113 111 125 255
0.468551 0.0751081 0.981 0 0 0 113 111 125 255
0.468551 0.0734178 0.981 0 0 0 114 112 126 255
0.388241 0.0104372 1.115 0 0 0 135 131 128 255
0.466858 0.0767985 0.981 0 0 0 112 109 124 255
0.466858 0.0751081 0.981 0 0 0 114 112 126 255
0.466858 0.0734178 0.981 0 0 0 115 113 127 255
0.467119 0.0664523 0.978 0 0 0 118 115 130 255
0.464971 0.047523 0.97 0 0 0 123 120 140 255
0.448883 0.0855418 1.025 0 0 0 66 60 71 255
0.462893 0.0936066 0.998 0 0 0 65 63 77 255
0.302659 -0.045116 1.273 0 0 0 135 130 148 255
0.302659 -0.0516966 1.273 0 0 0 137 132 145 255
0.302659 -0.0538902 1.273 0 0 0 137 131 149 255
0.427802 0.0404707 1.047 0 0 0 123 121 138 255
0.403636 0.0045434 1.084 0 0 0 137 131 149 255
0.403636 0.00267552 1.084 0 0 0 134 129 149 255
0.299437 -0.0585062 1.278 0 0 0 131 133 148 255
0.299437 -0.0607083 1.278 0 0 0 135 132 151 255
0.338912 -0.0158305 1.214 0 0 0 134 130 152 255
0.297231 -0.0607083 1.278 0 0 0 135 132 149 255
0.291569 -0.0680522 1.292 0 0 0 138 133 150 255
0.43129 0.0329684 1.038 0 0 0 132 127 144 255
0.317325 -0.0544537 1.236 0 0 0 140 136 149 255
0.442278 0.0483095 1.022 0 0 0 125 120 138 255
0.315192 -0.0523239 1.236 0 0 0 139 135 143 255
0.444042 0.0571147 1.022 0 0 0 119 114 132 255
0.444042 0.0535927 1.022 0 0 0 125 121 133 255
0.471447 0.0828787 0.973 0 0 0 111 107 127 255
0.355805 -0.0233808 1.173 0 0 0 139 133 153 255
0.355805 -0.0254021 1.173 0 0 0 139 134 151 255
0.298394 -0.0476812 1.283 0 0 0 131 134 144 255
0.298394 -0.049892 1.283 0 0 0 131 133 148 255
0.353781 -0.0233808 1.173 0 0 0 139 133 153 255
0.353781 -0.0254021 1.173 0 0 0 142 134 153 255
0.440515 0.0447875 1.022 0 0 0 125 121 141 255
0.440515 0.0430264 1.022 0 0 0 125 121 141 255
0.285982 -0.0660807 1.297 0 0 0 138 133 150 255
0.466645 0.0508658 0.97 0 0 0 125 120 138 255
0.369636 0.000859056 1.153 0 0 0 134 130 143 255
0.369636 -0.00112771 1.153 0 0 0 134 130 143 255
0.302659 -0.0473096 1.273 0 0 0 137 132 145 255
0.302659 -0.0495031 1.273 0 0 0 135 133 145 255
0.43129 0.0311797 1.038 0 0 0 130 125 142 255
0.388241 -0.00109055 1.115 0 0 0 134 130 152 255
0.389115 0.000828509 1.112 0 0 0 135 130 150 255
0.389115 -0.00108761 1.112 0 0 0 134 130 152 255
0.388241 0.0123585 1.115 0 0 0 148 132 119 255
0.388241 0.00659462 1.115 0 0 0 133 130 147 255
0.388241 0.00467333 1.115 0 0 0 137 131 153 255
0.388241 0.00275204 1.115 0 0 0 137 131 151 255
0.388241 0.000830744 1.115 0 0 0 135 130 150 255
0.400227 0.00269033 1.09 0 0 0 134 131 150 255
0.386317 0.00467333 1.115 0 0 0 135 130 148 255
0.386317 0.00275204 1.115 0 0 0 137 131 149 255
0.386317 -0.00685442 1.115 0 0 0 140 136 160 255
0.386317 -0.00877571 1.115 0 0 0 135 131 155 255
0.384392 -0.00685442 1.115 0 0 0 136 132 156 255
0.282497 -0.0600627 1.312 0 0 0 134 130 143 255
0.282497 -0.0623234 1.312 0 0 0 133 130 147 255
0.282497 -0.0645842 1.312 0 0 0 134 132 144 255
0.373665 0.00674839 1.141 0 0 0 138 127 124 255
0.449286 0.0547038 1.01 0 0 0 123 118 135 255
0.334722 -0.0325656 1.214 0 0 0 139 134 151 255
0.334722 -0.0346575 1.214 0 0 0 139 134 151 255
0.334722 -0.0367494 1.214 0 0 0 139 134 151 255
0.382355 0.00277919 1.126 0 0 0 134 130 152 255
0.43827 0.0484513 1.025 0 0 0 123 118 135 255
0.392953 0.0161575 1.112 0 0 0 133 113 79 255
0.392953 0.0142414 1.112 0 0 0 145 127 108 255
0.392953 0.0123252 1.112 0 0 0 140 129 125 255
0.440039 0.0484513 1.025 0 0 0 124 119 136 255
0.395225 0.000817333 1.097 0 0 0 135 132 151 255
0.408798 0.0248354 1.073 0 0 0 129 126 145 255
0.297334 -0.0456476 1.288 0 0 0 130 132 147 255
0.354156 -0.0174352 1.181 0 0 0 139 134 151 255
0.393332 0.000817333 1.097 0 0 0 134 131 150 255
0.429609 0.0422748 1.047 0 0 0 123 121 138 255
0.35331 -0.00932665 1.185 0 0 0 133 128 146 255
0.35331 -0.0113686 1.185 0 0 0 137 129 150 255
0.35331 -0.0134105 1.185 0 0 0 138 130 151 255
0.352118 -0.0174352 1.181 0 0 0 138 133 150 255
0.352118 -0.0215053 1.181 0 0 0 139 134 151 255
0.468551 0.0835601 0.981 0 0 0 113 108 128 255
0.391439 0.000817333 1.097 0 0 0 135 132 151 255
0.390966 -0.00107685 1.101 0 0 0 135 132 151 255
0.431416 0.0476872 1.047 0 0 0 122 118 142 255
0.449773 0.0745058 1.019 0 0 0 112 108 130 255
0.383274 0.00470686 1.123 0 0 0 133 130 147 255
0.383274 0.00277178 1.123 0 0 0 133 130 147 255
0.448738 0.0369678 1.001 0 0 0 128 123 143 255
0.448738 0.0352429 1.001 0 0 0 130 125 142 255
0.461197 0.0636624 0.987 0 0 0 120 115 133 255
0.461197 0.0619617 0.987 0 0 0 119 114 134 255
0.379813 -0.00110522 1.13 0 0 0 135 132 149 255
0.451427 0.0545413 1.007 0 0 0 121 118 139 255
0.376611 -0.00503489 1.138 0 0 0 137 131 149 255
0.24254 -0.0917772 1.381 0 0 0 127 130 140 255
0.24254 -0.0941568 1.381 0 0 0 129 128 135 255
0.457791 0.0585602 0.987 0 0 0 119 114 134 255
0.459494 0.0619617 0.987 0 0 0 119 114 134 255
0.375634 -0.00308207 1.141 0 0 0 136 133 154 255
0.371696 -0.00898035 1.141 0 0 0 138 133 150 255
0.371696 -0.0109464 1.141 0 0 0 136 133 152 255
0.457012 0.0586789 0.989 0 0 0 119 114 134 255
0.369727 -0.0109464 1.141 0 0 0 136 133 152 255
0.457791 0.0619617 0.987 0 0 0 119 114 134 255
0.455305 0.0586789 0.989 0 0 0 119 116 133 255
0.45392 0.0559411 1.001 0 0 0 123 116 134 255
0.336817 -0.02629 1.214 0 0 0 137 131 149 255
0.367646 -0.00708803 1.153 0 0 0 135 130 148 255
0.456641 0.0823044 1.007 0 0 0 110 104 124 255
0.447124 0.0513752 1.013 0 0 0 122 119 138 255
0.363431 -0.0111767 1.165 0 0 0 135 132 151 255
0.360644 -0.0132294 1.169 0 0 0 136 133 150 255
0.456641 0.0857747 1.007 0 0 0 107 104 121 255
0.447124 0.0531207 1.013 0 0 0 120 117 136 255
0.445376 0.0531207 1.013 0 0 0 120 117 134 255
0.444942 0.0515273 1.016 0 0 0 121 118 135 255
0.379201 -0.00306316 1.134 0 0 0 135 132 149 255
0.256491 -0.092316 1.354 0 0 0 133 131 143 255
