ply
format ascii 1.0
element vertex 716
property float x
property float y
property float z
property float normal_x
property float normal_y
property float normal_z
property uchar red
property uchar green
property uchar blue
property uchar alpha
end_header
0.117674 0.197177 0.468 -0.0123463 0.392967 -0.91947 84 80 22 255
-0.189172 0.198019 0.47 -0.00517287 0.38658 -0.922241 64 60 0 255
-0.0466889 0.178606 0.456 -0.00977757 0.39016 -0.920695 93 85 0 255
0.0678192 0.19419 0.465 -0.00756177 0.332081 -0.943221 86 84 0 255
0.113097 0.193295 0.467 -0.0233381 0.395924 -0.917987 83 79 19 255
-0.245536 0.195928 0.463 0.00668945 0.342309 -0.939564 60 56 0 255
-0.241583 0.187802 0.462 0.274556 0.440895 -0.854536 66 59 0 255
-0.226667 0.185636 0.463 0.270546 0.280503 -0.920936 63 54 0 255
-0.223434 0.19416 0.467 0.087828 0.387019 -0.917879 61 58 0 255
0.0699492 0.185235 0.462 0.0488745 0.397449 -0.916322 91 83 6 255
-0.223434 0.19243 0.467 0.105941 0.378909 -0.91935 62 53 0 255
-0.223434 0.191565 0.467 0.110205 0.397817 -0.910822 63 54 0 255
-0.221999 0.186896 0.464 0.130846 0.333203 -0.933732 63 54 0 255
-0.243201 0.175611 0.457 -0.0499412 0.137964 -0.989177 67 60 0 255
0.0755719 0.193329 0.465 0.039165 0.384325 -0.922367 90 82 0 255
-0.118395 0.19586 0.469 -0.0314981 0.433084 -0.900803 75 72 3 255
-0.219128 0.175147 0.458 0.0669889 0.513123 -0.855697 63 56 0 255
-0.219128 0.174298 0.458 0.0600654 0.515476 -0.854796 65 58 0 255
-0.166627 0.18049 0.463 -0.0440379 0.382562 -0.92288 72 68 0 255
0.0831454 0.189475 0.464 0.0897992 0.394976 -0.914292 87 85 0 255
-0.0405439 0.193355 0.463 -0.0533167 0.325957 -0.94388 89 79 1 255
-0.250043 0.195913 0.465 -0.13497 0.345226 -0.928764 61 57 0 255
-0.095025 0.17971 0.461 -0.0687755 0.435923 -0.897352 76 73 6 255
0.0871435 0.195025 0.467 0.0631054 0.369169 -0.927217 90 80 2 255
-0.105045 0.177616 0.46 -0.00564543 0.336252 -0.941755 79 75 1 255
-0.238122 0.175611 0.457 0.0667961 0.213211 -0.97472 65 58 0 255
-0.16339 0.187702 0.466 0.032791 0.40933 -0.911797 72 67 0 255
-0.211684 0.184318 0.464 0.0665063 0.372801 -0.925525 63 56 0 255
-0.233212 0.181481 0.459 0.139416 0.361767 -0.921785 65 57 0 255
-0.190643 0.182205 0.463 0.0327096 0.40635 -0.913132 66 59 0 255
-0.251369 0.17854 0.458 -0.096624 0.354908 -0.929895 61 58 0 255
-0.239164 0.181481 0.459 0.154531 0.400883 -0.903002 66 59 0 255
-0.242885 0.179389 0.458 -0.00191746 0.190808 -0.981625 63 61 0 255
-0.133455 0.176294 0.461 -0.0714631 0.413235 -0.907816 81 70 0 255
-0.0316906 0.184032 0.459 -0.0881766 0.363646 -0.927355 90 80 4 255
0.117622 0.180564 0.461 0.00563004 0.412767 -0.910819 92 81 5 255
-0.198749 0.196278 0.47 0.0490556 0.438429 -0.897426 66 59 0 255
0.206507 0.186438 0.465 -0.0773973 0.255193 -0.963787 74 75 13 255
-0.13145 0.189428 0.466 -0.0371158 0.419489 -0.907001 81 69 3 255
-0.223434 0.195025 0.467 0.0877697 0.392988 -0.915345 61 58 0 255
0.213451 0.197621 0.467 -0.212657 0.328918 -0.920103 76 72 12 255
-0.221521 0.182205 0.463 0.0755352 0.362756 -0.928818 63 56 0 255
0.200045 0.186839 0.466 -0.0349023 0.424499 -0.904755 77 73 13 255
-0.0463468 0.187396 0.461 0.00351183 0.513746 -0.857935 90 80 2 255
-0.22526 0.198467 0.469 0.131755 0.407677 -0.903571 60 56 0 255
-0.223339 0.189883 0.465 0.137861 0.407669 -0.902663 62 53 0 255
-0.222859 0.187756 0.464 0.144694 0.354542 -0.923777 60 55 0 255
-0.222859 0.186896 0.464 0.149996 0.333367 -0.930789 64 53 9 255
-0.222378 0.184778 0.463 0.15224 0.318057 -0.935768 63 54 0 255
-0.222378 0.183063 0.463 0.100548 0.333429 -0.937398 61 57 0 255
0.0738491 0.193329 0.465 0.0181093 0.366446 -0.930263 90 80 4 255
-0.16857 0.189428 0.466 -0.017786 0.399594 -0.91652 72 65 8 255
0.0822859 0.189475 0.464 0.106514 0.391385 -0.914042 86 84 0 255
-0.265249 0.181877 0.46 0.0160978 0.354243 -0.935015 58 55 0 255
0.168163 0.198441 0.471 -0.00239073 0.442372 -0.896828 79 76 11 255
0.119589 0.183523 0.462 -0.0181809 0.403935 -0.914607 85 82 19 255
0.228999 0.183581 0.46 -0.123724 0.343398 -0.931005 76 71 18 255
0.0942658 0.197177 0.468 0.0349007 0.429861 -0.90222 85 82 17 255
0.0922015 0.184379 0.462 0.0418599 0.404514 -0.913573 84 83 4 255
0.0932587 0.186493 0.463 0.0221995 0.387797 -0.921477 86 83 20 255
-0.222642 0.177616 0.46 0.0404915 0.484919 -0.873621 62 55 0 255
-0.0371131 0.19507 0.463 -0.0553199 0.330094 -0.942326 89 79 16 255
-0.236428 0.174764 0.457 0.0964343 0.196952 -0.975659 65 58 0 255
-0.0916561 0.19889 0.47 -0.0721051 0.363244 -0.9289 75 71 11 255
-0.114801 0.189022 0.465 -0.0155623 0.466537 -0.884365 75 74 0 255
-0.258157 0.176844 0.458 -0.140029 0.397737 -0.906751 60 57 0 255
-0.0274391 0.186583 0.459 0.0360321 0.372407 -0.92737 92 81 5 255
0.204361 0.190291 0.466 -0.144797 0.302725 -0.942014 73 72 20 255
-0.236097 0.176844 0.458 0.112711 0.265696 -0.957446 65 58 0 255
-0.155754 0.194123 0.469 -0.0918888 0.38439 -0.918586 72 66 2 255
-0.193155 0.18897 0.467 0.0796632 0.369396 -0.925851 66 60 0 255
-0.0369528 0.18825 0.461 -0.0366816 0.336594 -0.940935 94 83 0 255
0.147386 0.190291 0.466 0.0315938 0.399214 -0.916313 88 77 19 255
-0.249825 0.193355 0.463 -0.154597 0.354827 -0.922062 61 58 0 255
0.205665 0.19243 0.467 -0.135825 0.269205 -0.953457 81 70 12 255
0.0692429 0.187351 0.463 0.0532776 0.344535 -0.937261 91 83 6 255
-0.225165 0.195025 0.467 0.155062 0.405817 -0.900704 62 60 0 255
-0.2242 0.190744 0.465 0.141513 0.396702 -0.906974 63 54 0 255
-0.222754 0.1801 0.462 0.0864199 0.409154 -0.908364 61 53 0 255
-0.222272 0.178856 0.461 0.0707767 0.454136 -0.888117 63 56 0 255
-0.22179 0.177616 0.46 0.0325937 0.496428 -0.867466 63 56 0 255
0.097758 0.187756 0.464 -0.0202669 0.414785 -0.909694 84 81 16 255
0.0814263 0.189475 0.464 0.115746 0.381051 -0.91728 90 80 2 255
-0.182459 0.181739 0.464 0.0587294 0.351771 -0.934242 69 64 0 255
0.11531 0.182667 0.462 0.0257623 0.425864 -0.904421 92 81 5 255
-0.191425 0.189835 0.467 0.0418619 0.367903 -0.928921 69 60 1 255
-0.251766 0.195913 0.465 -0.145363 0.305611 -0.940995 60 56 0 255
0.0221165 0.189475 0.464 -0.00709397 0.38825 -0.921527 90 80 4 255
-0.0954373 0.186493 0.463 -0.0113611 0.428324 -0.903554 82 72 0 255
0.108932 0.186896 0.464 3.69444e-05 0.410599 -0.911816 90 80 2 255
-0.224346 0.17932 0.46 0.0859435 0.422906 -0.902089 63 53 0 255
-0.224346 0.177616 0.46 0.0661527 0.469268 -0.880575 60 56 0 255
-0.252627 0.195913 0.465 -0.130275 0.296258 -0.946182 57 55 0 255
-0.269552 0.186493 0.463 -0.122341 0.421843 -0.898377 55 51 0 255
-0.101018 0.189022 0.465 0.0365751 0.494412 -0.868458 75 74 0 255
0.179803 0.184715 0.465 0.0507484 0.330961 -0.942279 82 77 24 255
-0.161988 0.179244 0.462 -0.0151637 0.349061 -0.936977 73 69 0 255
0.0382825 0.187802 0.462 -0.0442286 0.428486 -0.902465 82 80 0 255
-0.270362 0.176764 0.46 -0.189919 0.227857 -0.954993 59 52 0 255
0.0489808 0.179389 0.458 -0.0157339 0.521405 -0.853164 93 84 0 255
-0.0291397 0.186583 0.459 -0.0340576 0.370957 -0.928025 90 81 0 255
-0.137509 0.196729 0.469 0.0284087 0.411865 -0.910802 75 70 2 255
-0.0770638 0.192881 0.466 -0.160591 0.403679 -0.900696 79 66 0 255
0.226442 0.184433 0.46 -0.14876 0.334453 -0.930597 72 71 17 255
-0.216294 0.178002 0.461 0.056186 0.446893 -0.892821 60 56 0 255
-0.218947 0.18392 0.463 0.0172963 0.367833 -0.929731 63 56 0 255
-0.0276185 0.193793 0.462 0.00876232 0.357094 -0.934027 90 80 17 255
-0.184295 0.17506 0.46 0.0956845 0.404169 -0.909666 76 62 0 255
0.0913456 0.183523 0.462 0.042474 0.408118 -0.911941 86 85 8 255
-0.243821 0.194212 0.463 0.147958 0.219205 -0.964395 62 60 0 255
0.101176 0.180172 0.46 -0.0189199 0.42523 -0.904888 89 81 4 255
-0.244679 0.19507 0.463 0.0663142 0.273929 -0.959461 62 58 0 255
-0.230311 0.184433 0.46 0.255211 0.263718 -0.930226 66 58 0 255
-0.209513 0.182205 0.463 0.0377138 0.352911 -0.934897 64 57 0 255
-0.0574489 0.189104 0.461 -0.0905461 0.400583 -0.911776 85 73 4 255
-0.224578 0.187756 0.464 0.163753 0.371347 -0.91394 63 56 0 255
0.0494086 0.185235 0.462 -0.0367822 0.414558 -0.909279 90 80 4 255
-0.238833 0.185285 0.46 0.20794 0.488891 -0.847199 66 59 0 255
-0.224094 0.183063 0.463 0.124633 0.312162 -0.941818 64 56 0 255
-0.156623 0.194992 0.469 -0.0838139 0.357409 -0.93018 72 67 0 255
-0.0138344 0.184032 0.459 -0.0748817 0.347232 -0.934785 93 82 0 255
0.0503733 0.190782 0.463 -0.0784209 0.313588 -0.946315 90 80 2 255
-0.231163 0.181024 0.46 0.295229 0.297997 -0.907765 65 57 0 255
-0.221999 0.185177 0.464 0.134622 0.324805 -0.936151 63 54 0 255
-0.230725 0.196334 0.466 0.226613 0.337287 -0.91372 63 60 0 255
-0.225198 0.177616 0.46 0.087383 0.458653 -0.884308 60 56 0 255
-0.272439 0.18816 0.465 -0.176231 0.370503 -0.911959 53 49 0 255
-0.193189 0.183853 0.465 0.018004 0.398674 -0.916916 69 59 8 255
-0.254662 0.192053 0.464 -0.141926 0.317312 -0.937641 64 57 0 255
0.190848 0.198441 0.471 -0.0984451 0.434424 -0.895313 78 75 10 255
0.0560119 0.182729 0.46 0.0403705 0.440754 -0.89672 94 84 3 255
0.186632 0.188105 0.467 0.0325275 0.365832 -0.930112 78 74 16 255
-0.221999 0.187756 0.464 0.12904 0.351012 -0.927437 60 56 0 255
0.0670899 0.182729 0.46 0.105461 0.449271 -0.887149 94 85 13 255
-0.0796536 0.192881 0.466 -0.117893 0.384167 -0.915706 78 66 0 255
-0.223494 0.178468 0.46 0.0597434 0.46253 -0.884588 63 56 0 255
-0.224299 0.19243 0.467 0.123858 0.383428 -0.915228 63 54 0 255
-0.245536 0.194212 0.463 0.0338016 0.310913 -0.949837 60 56 0 255
0.0683852 0.188209 0.463 0.0692227 0.335664 -0.939435 92 82 0 255
-0.225923 0.190744 0.465 0.152059 0.397972 -0.904708 62 60 0 255
-0.223494 0.177616 0.46 0.0441289 0.474515 -0.879141 62 55 0 255
-0.154016 0.194992 0.469 -0.0929312 0.359593 -0.92847 71 65 0 255
-0.155477 0.182205 0.463 0.0320864 0.333142 -0.942331 72 66 2 255
-0.142919 0.183458 0.464 0.0762239 0.358208 -0.930525 82 70 4 255
-0.0438798 0.19037 0.462 -0.0755126 0.317447 -0.945265 89 80 0 255
-0.194521 0.174207 0.46 0.0199845 0.486327 -0.873548 71 63 0 255
-0.274162 0.18816 0.465 -0.17943 0.366557 -0.91293 53 49 0 255
-0.168956 0.174207 0.46 -0.0329968 0.444057 -0.895391 78 64 0 255
-0.117229 0.178002 0.461 -0.0284773 0.347369 -0.937296 76 71 5 255
-0.253565 0.185235 0.462 -0.173284 0.246013 -0.953651 64 57 0 255
-0.0500867 0.194632 0.464 -0.0462505 0.325197 -0.944514 79 76 13 255
-0.190195 0.182599 0.464 0.0368809 0.413513 -0.909751 69 61 0 255
-0.130306 0.187299 0.465 -0.017874 0.41124 -0.911352 80 68 2 255
-0.16183 0.183458 0.464 -0.0287515 0.396092 -0.917761 73 67 3 255
-0.227525 0.186493 0.463 0.297623 0.362258 -0.883284 64 56 0 255
-0.0770638 0.194608 0.466 -0.133863 0.363392 -0.921969 73 69 0 255
-0.201793 0.181347 0.463 0.162524 0.356643 -0.919995 64 62 0 255
-0.272746 0.19416 0.467 -0.201389 0.269253 -0.941778 51 47 0 255
-0.0704113 0.187802 0.462 -0.0843458 0.425193 -0.901164 81 70 0 255
-0.192816 0.175912 0.46 0.00205773 0.445753 -0.895154 67 61 0 255
-0.188556 0.17506 0.46 0.0164938 0.438754 -0.898456 75 60 0 255
-0.250141 0.189514 0.462 -0.208581 0.318139 -0.924815 63 54 0 255
-0.22776 0.195025 0.467 0.227018 0.387056 -0.893673 62 60 0 255
-0.0583029 0.189104 0.461 -0.10255 0.393977 -0.913381 85 73 4 255
-0.226297 0.187756 0.464 0.180832 0.382166 -0.906228 64 56 0 255
-0.225321 0.180956 0.462 0.126175 0.371285 -0.919906 63 53 2 255
-0.250904 0.196774 0.465 -0.132713 0.328815 -0.935023 60 57 0 255
0.0788476 0.189475 0.464 0.0909409 0.370561 -0.924345 85 82 17 255
0.089931 0.197177 0.468 0.0363757 0.41079 -0.911004 89 79 16 255
-0.262691 0.187351 0.463 -0.0853509 0.284255 -0.954942 58 56 0 255
-0.0801577 0.17808 0.459 -0.121834 0.424421 -0.897231 81 70 0 255
0.119408 0.197177 0.468 -0.00347716 0.381552 -0.924341 81 78 9 255
-0.155955 0.1907 0.467 -0.0370345 0.424669 -0.904591 71 64 7 255
0.224003 0.183523 0.462 -0.252102 0.292989 -0.922281 76 72 12 255
-0.236959 0.192497 0.463 0.0940961 0.163299 -0.982079 63 59 0 255
-0.25646 0.177692 0.458 -0.11363 0.435227 -0.893121 63 56 0 255
-0.232452 0.196334 0.466 0.260544 0.315992 -0.912286 65 62 1 255
-0.219233 0.176764 0.46 0.0530996 0.49867 -0.865164 64 57 0 255
-0.226902 0.177616 0.46 0.166769 0.423668 -0.890333 62 60 0 255
0.0557684 0.179389 0.458 0.0197748 0.51749 -0.855461 96 85 0 255
-0.194851 0.194992 0.469 0.0620271 0.428312 -0.9015 65 57 0 255
-0.129185 0.178856 0.461 -0.0341749 0.396311 -0.91748 80 68 2 255
-0.156174 0.17506 0.46 0.00976528 0.420271 -0.907346 73 69 0 255
-0.224578 0.188615 0.464 0.163919 0.396212 -0.903408 61 57 0 255
-0.111862 0.177616 0.46 -0.013562 0.394583 -0.91876 82 72 0 255
-0.21181 0.198019 0.47 0.0404296 0.412195 -0.910198 62 58 0 255
-0.140082 0.189428 0.466 0.0510158 0.399422 -0.915346 75 72 3 255
0.0966598 0.195025 0.467 0.0295505 0.408089 -0.912464 89 77 22 255
-0.0163853 0.184032 0.459 -0.050235 0.333045 -0.941572 93 82 0 255
-0.172629 0.196278 0.47 -0.00654101 0.310142 -0.950668 69 62 12 255
0.0579672 0.188658 0.462 0.00972682 0.326427 -0.945172 92 81 5 255
0.0083275 0.188658 0.462 0.107096 0.260671 -0.959469 93 93 9 255
-0.228625 0.196755 0.467 0.207217 0.410614 -0.887951 62 59 0 255
-0.227646 0.193329 0.465 0.194491 0.350455 -0.916163 62 60 0 255
0.151376 0.187299 0.465 0.155496 0.367622 -0.916884 82 79 12 255
-0.245862 0.19037 0.462 0.0979348 0.368938 -0.92428 63 54 0 255
-0.226177 0.182667 0.462 0.231024 0.31528 -0.920449 65 58 0 255
-0.226177 0.181811 0.462 0.198651 0.346116 -0.91692 64 54 1 255
-0.224709 0.175529 0.459 0.0737781 0.516537 -0.85308 65 57 0 255
-0.224709 0.174679 0.459 0.0811995 0.523758 -0.847988 66 59 0 255
-0.114307 0.183063 0.463 0.00150863 0.266941 -0.963712 75 72 0 255
-0.213918 0.191565 0.467 0.0748177 0.405788 -0.9109 63 54 0 255
0.00658714 0.181877 0.46 0.196732 0.425308 -0.883408 105 92 17 255
0.154087 0.195443 0.468 0.156036 0.313967 -0.936524 81 77 15 255
-0.207417 0.188565 0.466 0.000975567 0.427614 -0.903961 65 58 0 255
-0.229459 0.185285 0.46 0.264387 0.265563 -0.927133 66 59 0 255
0.0611248 0.182729 0.46 -0.0381178 0.44115 -0.896624 92 84 9 255
-0.229459 0.184433 0.46 0.278893 0.228225 -0.932809 65 57 0 255
-0.170177 0.176294 0.461 -0.0271208 0.420964 -0.906672 78 64 0 255
-0.241248 0.192497 0.463 0.149571 0.138151 -0.979052 65 59 0 255
0.0325012 0.192467 0.465 0.0571345 0.45779 -0.887223 81 78 9 255
-0.26842 0.196755 0.467 -0.218928 0.255572 -0.941676 55 51 0 255
-0.158565 0.179244 0.462 0.00883483 0.334174 -0.94247 78 66 0 255
-0.203509 0.182205 0.463 0.189279 0.297756 -0.935689 69 61 0 255
-0.271578 0.189022 0.465 -0.179944 0.359621 -0.915583 53 49 0 255
0.0831454 0.188615 0.464 0.0778232 0.392121 -0.916616 84 83 4 255
-0.12861 0.179244 0.462 -0.0138806 0.409172 -0.912352 80 68 2 255
-0.0705637 0.189924 0.463 -0.0900232 0.454768 -0.886048 75 70 2 255
0.146909 0.19889 0.47 0.0194116 0.357709 -0.933631 81 77 17 255
-0.157367 0.176294 0.461 0.0113888 0.390561 -0.920506 74 70 0 255
-0.128307 0.185177 0.464 -0.0139517 0.394042 -0.918986 80 70 0 255
-0.0674229 0.19419 0.465 -0.127164 0.434094 -0.891847 78 67 0 255
-0.151389 0.176294 0.461 -0.0154988 0.368229 -0.929606 75 72 3 255
-0.226129 0.198467 0.469 0.15279 0.407964 -0.900123 60 56 0 255
-0.220937 0.176764 0.46 0.0242236 0.505368 -0.862564 64 57 0 255
-0.265837 0.190334 0.464 -0.109199 0.286425 -0.951859 56 53 0 255
-0.0648386 0.19419 0.465 -0.119005 0.424654 -0.8975 80 69 0 255
-0.147652 0.17506 0.46 -0.0430735 0.356203 -0.933415 80 68 2 255
-0.140946 0.189428 0.466 0.0526675 0.405764 -0.912459 75 72 3 255
-0.0112343 0.179844 0.457 -0.091891 0.346037 -0.93371 97 85 1 255
0.17316 0.193709 0.468 0.0287196 0.358675 -0.93302 78 77 11 255
-0.191376 0.194123 0.469 0.0348125 0.381726 -0.92362 66 59 0 255
0.210856 0.19589 0.467 -0.233392 0.330664 -0.914434 72 71 17 255
-0.235752 0.196351 0.464 0.208841 0.296001 -0.932078 62 60 0 255
0.152565 0.189428 0.466 0.149937 0.325142 -0.933703 82 78 18 255
-0.121259 0.19889 0.47 -0.0310363 0.427227 -0.903612 79 68 0 255
-0.143227 0.186438 0.465 0.0662085 0.417864 -0.906094 79 67 0 255
-0.233552 0.17854 0.458 0.156662 0.32826 -0.931505 65 58 0 255
0.0486579 0.189066 0.463 -0.0659279 0.316011 -0.946462 89 79 1 255
-0.228999 0.194608 0.466 0.213802 0.334978 -0.917648 62 60 0 255
0.176628 0.192842 0.468 0.0518861 0.390162 -0.919283 79 76 11 255
-0.227525 0.187351 0.463 0.263536 0.403125 -0.876378 64 57 0 255
-0.194521 0.175912 0.46 0.0145699 0.475275 -0.879717 66 59 0 255
-0.22605 0.178468 0.46 0.126396 0.420388 -0.898498 64 57 0 255
-0.22605 0.177616 0.46 0.121346 0.442334 -0.888603 60 57 0 255
-0.246502 0.188693 0.46 0.0134683 0.359363 -0.933101 60 56 0 255
-0.0190599 0.191226 0.462 -0.00280098 0.318658 -0.947866 90 80 2 255
-0.264406 0.188209 0.463 -0.118912 0.311987 -0.942616 58 56 0 255
-0.0581764 0.186989 0.46 -0.113346 0.407649 -0.906077 82 78 18 255
-0.228745 0.182667 0.462 0.317733 0.224029 -0.921334 62 58 0 255
-0.25702 0.179781 0.459 -0.0766278 0.458639 -0.885313 65 58 0 255
-0.266101 0.181877 0.46 -0.0124197 0.360646 -0.93262 58 55 0 255
-0.141504 0.186438 0.465 0.101431 0.40704 -0.907761 81 70 0 255
0.226571 0.186946 0.462 -0.129742 0.340429 -0.931276 73 72 18 255
-0.13289 0.187299 0.465 -0.0572382 0.417114 -0.90705 75 72 3 255
-0.117637 0.192018 0.466 -0.0264369 0.452006 -0.891623 72 72 2 255
0.0143495 0.188209 0.463 0.0919863 0.303957 -0.948235 95 86 1 255
0.211675 0.187299 0.465 -0.209308 0.204811 -0.95616 76 72 12 255
-0.231163 0.185285 0.46 0.175527 0.327735 -0.928321 63 61 0 255
-0.0375607 0.181086 0.458 0.0630025 0.428734 -0.901231 92 82 0 255
-0.212597 0.190291 0.466 0.0688798 0.410504 -0.909253 60 57 0 255
0.0357922 0.188209 0.463 -0.0157127 0.431678 -0.901891 82 79 10 255
0.200021 0.19889 0.47 -0.0853391 0.351632 -0.93224 75 71 9 255
-0.0937219 0.186493 0.463 -0.00764264 0.438277 -0.898808 82 72 0 255
-0.203042 0.176764 0.46 0.0656598 0.496588 -0.865499 69 61 0 255
-0.0937219 0.18392 0.463 -0.0163494 0.382882 -0.923653 77 74 7 255
-0.243733 0.180237 0.458 0.00900091 0.203842 -0.978962 63 61 0 255
-0.237471 0.196351 0.464 0.166598 0.280664 -0.945237 61 57 0 255
-0.0787903 0.193744 0.466 -0.134071 0.357252 -0.924335 78 66 0 255
-0.214323 0.190291 0.466 0.0595527 0.414953 -0.907892 61 56 1 255
-0.193655 0.177532 0.462 -0.0202475 0.445533 -0.895036 69 61 0 255
-0.229369 0.19419 0.465 0.188407 0.338043 -0.922079 62 60 0 255
-0.266954 0.178468 0.46 -0.0885862 0.239287 -0.966899 58 56 0 255
-0.229369 0.189883 0.465 0.170267 0.395984 -0.902334 62 58 0 255
-0.228875 0.188615 0.464 0.1873 0.449557 -0.873394 65 58 0 255
-0.227889 0.185235 0.462 0.31799 0.242129 -0.916655 63 54 0 255
-0.209916 0.1801 0.462 0.0636115 0.404131 -0.912487 66 59 0 255
-0.227889 0.180956 0.462 0.250865 0.307293 -0.917953 66 59 0 255
-0.226902 0.176764 0.46 0.152695 0.452439 -0.878626 65 58 0 255
-0.114916 0.180956 0.462 -0.000334196 0.335889 -0.941902 76 73 0 255
-0.215907 0.181811 0.462 0.0164229 0.358354 -0.933441 64 57 0 255
-0.120132 0.196729 0.469 -0.0348049 0.427189 -0.903492 75 70 2 255
-0.271214 0.175912 0.46 -0.186424 0.232315 -0.954608 57 49 0 255
-0.171513 0.17506 0.46 -0.0542866 0.413365 -0.908946 78 65 3 255
-0.230661 0.17808 0.459 0.252405 0.361607 -0.897515 65 58 0 255
-0.0290128 0.178997 0.457 -0.0177846 0.3389 -0.940654 94 84 3 255
-0.12686 0.186438 0.465 -0.0259921 0.418552 -0.907821 80 70 0 255
-0.0242474 0.19507 0.463 0.0311651 0.30263 -0.952598 89 79 1 255
-0.218475 0.181811 0.462 -0.0139961 0.364917 -0.930935 62 55 0 255
-0.199211 0.189835 0.467 0.0281378 0.388737 -0.920919 66 59 0 255
-0.113564 0.191565 0.467 -0.0132902 0.450267 -0.892795 75 72 3 255
-0.251308 0.18398 0.461 -0.259552 0.278493 -0.924702 62 60 0 255
0.131856 0.183063 0.463 0.0713664 0.470675 -0.879416 90 80 17 255
-0.168276 0.198019 0.47 0.015164 0.287415 -0.957686 68 65 0 255
-0.194074 0.182205 0.463 -0.0456946 0.372414 -0.926941 66 58 0 255
-0.180351 0.179632 0.463 0.0804649 0.338158 -0.937643 69 64 0 255
-0.273025 0.191155 0.466 -0.211479 0.315517 -0.925055 58 50 0 255
-0.257544 0.189066 0.463 -0.0515332 0.297516 -0.953325 61 58 0 255
0.157587 0.18049 0.463 0.0429318 0.466447 -0.883507 84 81 16 255
-0.239685 0.183581 0.46 0.208816 0.454891 -0.865719 66 59 0 255
-0.0903991 0.19631 0.468 -0.0932006 0.369188 -0.92467 76 73 6 255
-0.181431 0.193709 0.468 -0.000430192 0.38752 -0.921861 70 62 0 255
-0.229958 0.182272 0.461 0.282343 0.24898 -0.92644 65 57 0 255
-0.096295 0.18392 0.463 -0.0304252 0.365803 -0.930195 82 71 13 255
-0.184178 0.182599 0.464 0.0232746 0.363818 -0.931179 69 61 0 255
-0.262964 0.195051 0.465 -0.0785563 0.216238 -0.973175 58 56 0 255
-0.224391 0.197598 0.469 0.099479 0.378992 -0.920037 60 56 0 255
-0.23023 0.195051 0.465 0.182109 0.336767 -0.92381 62 60 0 255
-0.23023 0.191606 0.465 0.189914 0.340794 -0.920756 63 59 0 255
-0.227755 0.177616 0.46 0.196972 0.427354 -0.882366 62 60 0 255
-0.227259 0.175529 0.459 0.140957 0.487935 -0.861424 61 57 0 255
-0.227259 0.174679 0.459 0.137969 0.483461 -0.864425 62 60 0 255
-0.172365 0.17506 0.46 -0.0694674 0.408474 -0.910123 78 65 3 255
-0.252709 0.188658 0.462 -0.196431 0.260444 -0.945296 63 56 0 255
-0.172365 0.174207 0.46 -0.0695624 0.411547 -0.90873 78 65 3 255
-0.252709 0.187802 0.462 -0.203458 0.262154 -0.943335 61 58 0 255
-0.167615 0.176294 0.461 -0.0364997 0.428319 -0.90289 78 64 0 255
0.109319 0.182667 0.462 0.0197543 0.480204 -0.876935 90 80 2 255
0.0783242 0.195471 0.466 0.0901721 0.394689 -0.914379 92 81 5 255
-0.242963 0.192497 0.463 0.221405 0.182239 -0.958003 62 60 0 255
-0.140383 0.1907 0.467 0.0329459 0.383212 -0.923073 76 73 0 255
-0.162339 0.181347 0.463 -0.0386679 0.357724 -0.933026 73 69 0 255
-0.090096 0.182667 0.462 -0.0431131 0.407587 -0.912148 78 72 6 255
-0.166627 0.179632 0.463 -0.0407905 0.38775 -0.920862 73 69 0 255
-0.23679 0.18398 0.461 0.120606 0.48174 -0.867975 64 62 0 255
0.195702 0.194576 0.468 -0.0944981 0.310987 -0.945705 78 74 16 255
0.224003 0.186946 0.462 -0.179521 0.281266 -0.942689 73 72 9 255
0.120532 0.198467 0.469 -0.000885114 0.380231 -0.924891 82 79 10 255
-0.235752 0.195491 0.464 0.213635 0.296379 -0.93087 62 59 0 255
-0.266373 0.17638 0.459 -0.109867 0.26621 -0.957633 63 56 0 255
-0.181673 0.176676 0.462 0.11666 0.396213 -0.910717 75 58 5 255
-0.0880968 0.189022 0.465 -0.121116 0.46811 -0.875331 76 73 0 255
0.0835038 0.193744 0.466 0.0870143 0.366346 -0.926401 84 84 2 255
-0.193216 0.182205 0.463 -0.0198971 0.387524 -0.921645 66 58 0 255
-0.0122131 0.192937 0.462 -0.0847211 0.293732 -0.952126 89 79 1 255
-0.148294 0.180956 0.462 -0.0455122 0.263092 -0.963697 75 72 0 255
-0.224299 0.19416 0.467 0.104208 0.395684 -0.912455 60 57 0 255
-0.0921331 0.19631 0.468 -0.071062 0.360125 -0.930194 75 72 3 255
-0.121763 0.1801 0.462 -0.0526214 0.3087 -0.949703 75 72 3 255
-0.220186 0.181811 0.462 0.0344647 0.377536 -0.925353 63 56 0 255
-0.0155011 0.181086 0.458 -0.051641 0.291801 -0.955084 95 86 14 255
-0.0751756 0.191606 0.465 -0.165401 0.443982 -0.880638 74 70 0 255
-0.210772 0.179244 0.462 0.0511021 0.397287 -0.91627 66 59 0 255
-0.0613172 0.180237 0.458 -0.0579491 0.401708 -0.913933 86 77 0 255
0.156353 0.1907 0.467 0.13423 0.311043 -0.940869 83 79 19 255
-0.0980104 0.18392 0.463 -0.0280804 0.376373 -0.926042 78 74 0 255
-0.0738347 0.187802 0.462 -0.139768 0.440044 -0.887032 75 70 2 255
-0.13289 0.186438 0.465 -0.0692211 0.40406 -0.91211 75 70 2 255
-0.105099 0.187756 0.464 0.0701938 0.445196 -0.892678 81 70 0 255
-0.227272 0.192881 0.466 0.169551 0.360885 -0.917068 61 58 0 255
-0.272746 0.193295 0.467 -0.197938 0.274556 -0.940978 51 49 0 255
-0.0230866 0.178997 0.457 0.0617227 0.34267 -0.937426 97 85 5 255
0.0783378 0.184834 0.461 0.0522085 0.397073 -0.916301 90 81 0 255
-0.150655 0.185177 0.464 -0.0651416 0.397387 -0.915336 75 72 0 255
-0.232086 0.197621 0.467 0.265315 0.324722 -0.907834 66 59 0 255
-0.231589 0.194608 0.466 0.226377 0.328071 -0.917128 63 61 0 255
-0.231092 0.189883 0.465 0.166557 0.378621 -0.910442 63 61 0 255
0.167743 0.183853 0.465 0.00438361 0.473716 -0.880667 82 80 0 255
-0.229601 0.186946 0.462 0.208109 0.430294 -0.878372 63 56 0 255
-0.229601 0.185235 0.462 0.23728 0.288447 -0.92763 63 56 0 255
-0.13519 0.198019 0.47 0.0185389 0.392194 -0.919696 75 71 9 255
-0.228607 0.177616 0.46 0.226509 0.413426 -0.881914 63 61 0 255
-0.227613 0.174298 0.458 0.136173 0.465766 -0.874368 63 61 0 255
-0.173217 0.174207 0.46 -0.0734027 0.422854 -0.90322 78 64 0 255
-0.253565 0.187802 0.462 -0.172491 0.24374 -0.954378 61 58 0 255
-0.195774 0.184715 0.465 0.000743686 0.331528 -0.943445 66 59 0 255
-0.236959 0.188209 0.463 0.0157117 0.297504 -0.954591 63 61 0 255
-0.119195 0.1801 0.462 -0.0177141 0.323708 -0.945991 80 68 11 255
0.0747105 0.19419 0.465 0.0290234 0.385962 -0.922058 84 84 2 255
-0.198346 0.189835 0.467 0.0500368 0.393692 -0.91788 66 59 0 255
-0.164793 0.198019 0.47 0.00904742 0.27567 -0.96121 73 66 9 255
0.200036 0.191975 0.468 -0.0603531 0.215734 -0.974585 76 74 13 255
-0.0630141 0.180237 0.458 -0.0477867 0.392936 -0.918323 85 75 0 255
0.152027 0.1907 0.467 0.13491 0.317169 -0.938724 83 80 13 255
0.115073 0.19631 0.468 -0.0277149 0.403206 -0.914689 83 79 19 255
0.23135 0.192497 0.463 -0.0168592 0.275021 -0.96129 71 70 4 255
-0.0736107 0.193744 0.466 -0.102625 0.434554 -0.89478 74 70 0 255
0.0928002 0.189883 0.465 0.0213176 0.432869 -0.901205 85 82 1 255
0.0964528 0.192018 0.466 0.0237099 0.438018 -0.898654 84 81 16 255
-0.0130972 0.19507 0.463 -0.0882083 0.285647 -0.954267 87 77 0 255
-0.122026 0.18392 0.463 -0.076168 0.377475 -0.922882 81 70 0 255
-0.182529 0.176676 0.462 0.114733 0.401846 -0.908491 71 65 0 255
-0.187901 0.194123 0.469 -0.00445499 0.3884 -0.92148 69 62 0 255
-0.118339 0.182667 0.462 0.0112568 0.29673 -0.954895 80 68 2 255
0.01958 0.192467 0.465 0.0487486 0.381707 -0.922997 93 84 0 255
0.0382825 0.186091 0.462 -0.0488768 0.380586 -0.923453 87 77 12 255
-0.171513 0.174207 0.46 -0.058111 0.422502 -0.904497 78 65 3 255
-0.251853 0.187802 0.462 -0.227011 0.266812 -0.936631 64 56 0 255
-0.235424 0.182729 0.46 0.0614977 0.456899 -0.88739 63 61 0 255
0.162061 0.185112 0.466 0.0395032 0.465213 -0.884317 82 78 18 255
-0.0182435 0.192497 0.463 -0.0191676 0.296622 -0.954803 89 79 1 255
0.0892459 0.181024 0.46 0.0473345 0.407433 -0.912008 90 79 19 255
-0.225198 0.178468 0.46 0.098378 0.43514 -0.894972 63 54 0 255
-0.274476 0.191565 0.467 -0.192858 0.288057 -0.937992 55 46 0 255
0.0602727 0.182729 0.46 -0.0300974 0.442459 -0.896283 94 85 13 255
-0.260975 0.189924 0.463 -0.0843973 0.324138 -0.942238 58 56 0 255
-0.249825 0.194212 0.463 -0.142478 0.353127 -0.924663 63 56 0 255
0.165358 0.191108 0.468 -0.00523774 0.261325 -0.965237 79 76 13 255
-0.231953 0.19419 0.465 0.235148 0.303594 -0.923329 63 60 0 255
-0.231953 0.193329 0.465 0.22173 0.311477 -0.924023 65 57 0 255
-0.230457 0.187802 0.462 0.187663 0.479275 -0.857367 62 58 0 255
-0.22896 0.17638 0.459 0.190268 0.407224 -0.89329 66 59 0 255
-0.228461 0.175147 0.458 0.15496 0.425892 -0.891405 65 58 0 255
-0.215051 0.181811 0.462 0.0509718 0.362389 -0.930632 65 58 0 255
-0.242565 0.184032 0.459 0.122195 0.371806 -0.920233 66 59 0 255
-0.168932 0.1907 0.467 -0.0146555 0.462582 -0.886455 69 64 0 255
-0.243945 0.186989 0.46 0.137881 0.427243 -0.893562 66 59 0 255
-0.147758 0.183063 0.463 -0.0425709 0.324497 -0.944928 81 70 0 255
0.114206 0.197177 0.468 -0.0319392 0.404191 -0.914117 82 79 12 255
-0.182207 0.196278 0.47 -0.022445 0.356099 -0.934179 70 62 0 255
-0.144327 0.182205 0.463 0.0415277 0.302736 -0.952169 76 71 5 255
-0.248824 0.176844 0.458 -0.0586094 0.232405 -0.970852 66 59 0 255
0.130958 0.198467 0.469 -0.00259796 0.263344 -0.964699 83 79 19 255
-0.267806 0.181877 0.46 -0.093434 0.338157 -0.93644 57 54 0 255
-0.0931146 0.178468 0.46 -0.0575092 0.455432 -0.888411 82 73 0 255
0.211623 0.181347 0.463 -0.175232 0.32695 -0.928654 78 75 10 255
0.0536879 0.186946 0.462 -0.0225703 0.351958 -0.935743 86 84 0 255
0.175761 0.192842 0.468 0.0472181 0.382638 -0.922691 79 76 11 255
-0.201338 0.176764 0.46 0.0737735 0.508514 -0.857888 70 61 3 255
-0.241769 0.192053 0.464 0.158462 0.148397 -0.97615 65 59 0 255
-0.145262 0.189428 0.466 -0.0354513 0.442189 -0.896221 78 73 22 255
-0.245862 0.192937 0.462 0.0584404 0.329076 -0.942493 60 57 0 255
0.0866894 0.181024 0.46 0.0432544 0.435814 -0.898997 91 83 8 255
-0.239815 0.175611 0.457 0.0384342 0.182215 -0.982507 66 59 0 255
0.0755719 0.192467 0.465 0.039019 0.37228 -0.9273 85 82 1 255
-0.22179 0.176764 0.46 0.0232597 0.503982 -0.863401 65 58 0 255
-0.00279258 0.191666 0.461 0.0983886 0.369517 -0.924 99 92 10 255
-0.0537984 0.184882 0.459 -0.0762753 0.41776 -0.90535 82 79 10 255
-0.227755 0.178468 0.46 0.193792 0.41778 -0.88764 66 59 0 255
-0.126541 0.189835 0.467 -0.0147438 0.412324 -0.910918 75 70 2 255
0.161544 0.189835 0.467 0.0143958 0.269249 -0.962963 82 80 0 255
-0.235752 0.192913 0.464 0.192201 0.219235 -0.956554 62 58 0 255
-0.232814 0.193329 0.465 0.245995 0.307366 -0.919246 65 57 0 255
0.0253896 0.182272 0.461 0.0051403 0.472454 -0.88134 87 79 0 255
0.136732 0.18816 0.465 -0.0814788 0.423789 -0.902089 85 82 1 255
-0.093 0.194576 0.468 -0.0624657 0.34486 -0.936574 80 69 0 255
0.143376 0.191565 0.467 0.044818 0.415803 -0.90835 82 78 18 255
-0.253803 0.194632 0.464 -0.116712 0.294389 -0.948532 60 56 0 255
-0.252709 0.186946 0.462 -0.202091 0.241134 -0.949217 61 58 0 255
-0.00107752 0.182783 0.458 0.152724 0.235816 -0.959722 107 96 13 255
0.14399 0.198467 0.469 0.0404741 0.30911 -0.950165 82 78 18 255
0.070252 0.190334 0.464 0.0332174 0.320554 -0.946648 84 83 4 255
-0.230311 0.186137 0.46 0.201565 0.330704 -0.921958 65 57 0 255
-0.230311 0.185285 0.46 0.218746 0.287431 -0.932488 66 59 0 255
-0.20828 0.188565 0.466 0.000845445 0.421717 -0.906727 65 57 0 255
-0.230311 0.181024 0.46 0.312806 0.304306 -0.89975 65 57 0 255
-0.230311 0.17932 0.46 0.311035 0.352807 -0.882488 65 57 0 255
-0.22981 0.17723 0.459 0.231534 0.391833 -0.890426 66 59 0 255
-0.22931 0.175995 0.458 0.183179 0.394978 -0.900243 66 59 0 255
-0.183443 0.17506 0.46 0.113621 0.398369 -0.910161 76 62 0 255
0.127483 0.198467 0.469 -0.0135828 0.291953 -0.956336 88 77 19 255
0.0407616 0.184834 0.461 -0.0302845 0.378759 -0.925 90 80 17 255
-0.0973349 0.194576 0.468 -0.0166452 0.349059 -0.936953 80 68 2 255
-0.247667 0.183182 0.459 -0.191372 0.296661 -0.935611 62 60 0 255
-0.171654 0.186438 0.465 -0.0542729 0.340126 -0.938812 77 63 0 255
-0.0933975 0.19889 0.47 -0.0594592 0.366274 -0.928606 76 73 6 255
-0.203894 0.175912 0.46 0.0465292 0.50205 -0.863586 66 59 0 255
-0.0813801 0.192018 0.466 -0.072996 0.432298 -0.898771 78 66 0 255
-0.0584293 0.191226 0.462 -0.0971218 0.4351 -0.895129 77 74 9 255
0.204371 0.194576 0.468 -0.108909 0.288248 -0.951342 76 72 12 255
-0.208246 0.184318 0.464 -0.00156716 0.361392 -0.932413 66 58 0 255
0.0331473 0.185235 0.462 -0.0360259 0.351926 -0.935334 87 79 0 255
-0.260702 0.174298 0.458 -0.152331 0.377295 -0.913479 65 58 0 255
0.101616 0.183523 0.462 0.0127438 0.422087 -0.906466 85 84 5 255
-0.227889 0.182667 0.462 0.318685 0.241467 -0.916588 65 58 0 255
0.0969152 0.180172 0.46 -0.0161988 0.418201 -0.90821 85 84 5 255
-0.0890441 0.19889 0.47 -0.0940811 0.357478 -0.929171 75 72 3 255
-0.247976 0.176844 0.458 -0.0562692 0.192396 -0.979703 65 58 0 255
-0.149473 0.182205 0.463 -0.0669655 0.30652 -0.949506 75 70 2 255
-0.233676 0.195051 0.465 0.260175 0.299499 -0.917938 60 56 0 255
0.163624 0.191108 0.468 -0.0383171 0.289369 -0.95645 82 78 18 255
-0.233676 0.19419 0.465 0.261128 0.300013 -0.917499 63 60 0 255
-0.232671 0.189066 0.463 0.093517 0.425327 -0.900195 62 60 0 255
-0.231163 0.186137 0.46 0.143034 0.35981 -0.921997 63 59 0 255
0.166164 0.181347 0.463 0.0217439 0.491432 -0.870645 87 77 10 255
-0.231163 0.184433 0.46 0.208355 0.277856 -0.937755 66 58 0 255
-0.230158 0.175147 0.458 0.182973 0.381239 -0.906189 65 58 0 255
-0.137802 0.198019 0.47 0.0132422 0.409892 -0.912038 75 70 2 255
-0.256132 0.188658 0.462 -0.0815484 0.245044 -0.966076 60 57 0 255
-0.256132 0.187802 0.462 -0.080644 0.243011 -0.966666 61 57 0 255
-0.244265 0.184032 0.459 0.0504184 0.353081 -0.934233 66 59 0 255
0.176075 0.179244 0.462 0.0203184 0.36774 -0.929707 87 75 18 255
-0.177853 0.198019 0.47 0.0149848 0.318265 -0.947883 70 63 0 255
0.0908815 0.188615 0.464 -0.00261365 0.41005 -0.912059 84 83 4 255
-0.200511 0.189428 0.466 0.0286756 0.38841 -0.92104 66 59 0 255
-0.236959 0.186493 0.463 0.0201594 0.401946 -0.915441 63 61 0 255
0.217157 0.180956 0.462 -0.122657 0.248469 -0.960843 77 74 9 255
-0.101018 0.187299 0.465 0.0299896 0.469252 -0.882555 81 70 0 255
-0.270717 0.191606 0.465 -0.202211 0.308632 -0.929439 53 50 0 255
-0.248517 0.183182 0.459 -0.228041 0.293255 -0.928439 62 60 0 255
0.227427 0.186946 0.462 -0.102646 0.344101 -0.933305 73 72 18 255
-0.244476 0.189104 0.461 0.188045 0.383773 -0.904078 65 58 0 255
-0.100366 0.180956 0.462 -0.0270193 0.343013 -0.938942 81 70 0 255
-0.108303 0.184778 0.463 -0.00315352 0.272216 -0.962231 76 71 18 255
0.0832808 0.181024 0.46 0.0527792 0.457217 -0.887787 92 82 0 255
-0.122353 0.177148 0.461 -0.0230834 0.331876 -0.943041 76 73 0 255
-0.266696 0.189475 0.464 -0.11669 0.296902 -0.947751 56 53 0 255
0.00146782 0.182783 0.458 0.258184 0.298836 -0.918715 106 95 21 255
0.129297 0.180172 0.46 0.062782 0.471886 -0.879421 85 84 5 255
0.0486579 0.190782 0.463 -0.0836527 0.324707 -0.942108 85 82 1 255
-0.190231 0.177532 0.462 0.00952284 0.427804 -0.903822 71 63 0 255
-0.0825964 0.197177 0.468 -0.0918777 0.333839 -0.938142 75 71 11 255
0.0988301 0.189883 0.465 -0.00809307 0.443503 -0.896236 84 84 2 255
-0.0105014 0.192937 0.462 -0.093783 0.286756 -0.953402 89 79 1 255
-0.0208166 0.194212 0.463 0.0308969 0.272796 -0.961576 89 79 16 255
-0.202229 0.182599 0.464 0.197575 0.28998 -0.936417 64 62 0 255
0.125888 0.180172 0.46 0.0288833 0.432607 -0.90112 92 81 5 255
-0.176982 0.198019 0.47 0.0149843 0.32149 -0.946795 71 65 0 255
0.0577162 0.182729 0.46 0.0266314 0.437547 -0.898801 92 84 9 255
-0.213509 0.194576 0.468 0.0699629 0.395614 -0.915748 63 56 0 255
-0.241188 0.180237 0.458 0.0747288 0.304773 -0.949489 66 59 0 255
-0.242439 0.186946 0.462 0.265516 0.456133 -0.849379 63 60 0 255
0.202624 0.183458 0.464 0.00502522 0.409922 -0.912107 79 76 11 255
-0.0527174 0.178997 0.457 -0.0650658 0.339826 -0.938235 90 82 0 255
-0.21412 0.175912 0.46 0.073037 0.449167 -0.890458 64 56 0 255
-0.114554 0.187756 0.464 -0.0263421 0.41695 -0.908548 75 72 0 255
-0.25758 0.181024 0.46 -0.0630788 0.422049 -0.904376 63 56 0 255
0.176357 0.183853 0.465 -0.0266062 0.352082 -0.935591 79 76 13 255
-0.00531975 0.182783 0.458 -0.0381443 0.279128 -0.959496 99 86 11 255
-0.213268 0.176764 0.46 0.0671062 0.442926 -0.894043 65 58 0 255
-0.20906 0.179244 0.462 0.0483776 0.406385 -0.91242 66 59 0 255
-0.153762 0.18049 0.463 -0.00790226 0.307532 -0.951505 79 65 0 255
0.162757 0.191108 0.468 -0.0458199 0.29424 -0.954633 82 78 18 255
-0.234537 0.19419 0.465 0.253713 0.28873 -0.923182 63 60 0 255
-0.234537 0.193329 0.465 0.255306 0.286389 -0.923472 63 59 0 255
-0.233528 0.189924 0.463 0.160618 0.333968 -0.928799 63 61 0 255
-0.233528 0.189066 0.463 0.0994211 0.362991 -0.926473 63 61 0 255
-0.27333 0.198911 0.468 -0.231564 0.276665 -0.932649 53 48 0 255
0.164298 0.183853 0.465 0.014955 0.49743 -0.867375 82 77 24 255
-0.233024 0.186946 0.462 0.0094614 0.423782 -0.905715 63 59 0 255
-0.211775 0.192842 0.468 0.053713 0.414494 -0.908466 64 56 0 255
-0.233024 0.185235 0.462 0.00114774 0.383439 -0.923566 66 58 0 255
-0.233024 0.184379 0.462 0.0289834 0.36455 -0.930733 66 58 0 255
-0.232015 0.181877 0.46 0.203023 0.315553 -0.926935 65 57 0 255
-0.232015 0.181024 0.46 0.227567 0.325147 -0.917874 65 57 0 255
-0.237817 0.193355 0.463 0.0748957 0.160039 -0.984265 63 60 0 255
-0.236276 0.182729 0.46 0.121841 0.484602 -0.866208 63 62 0 255
-0.133449 0.198019 0.47 0.0131802 0.382431 -0.92389 76 72 10 255
-0.139219 0.188565 0.466 0.0456613 0.385474 -0.921588 81 69 3 255
-0.19402 0.18897 0.467 0.0923752 0.36895 -0.924848 65 59 0 255
-0.016528 0.194212 0.463 -0.0440573 0.291312 -0.955613 85 75 11 255
-0.155322 0.17506 0.46 0.00802804 0.409463 -0.912291 79 66 6 255
-0.128583 0.187299 0.465 0.00374897 0.416689 -0.909041 80 67 8 255
0.0824632 0.190744 0.465 0.114106 0.382925 -0.916705 85 84 0 255
-0.0267626 0.193793 0.462 0.0240955 0.349354 -0.936681 89 79 16 255
0.206476 0.181347 0.463 -0.0374294 0.366305 -0.929742 78 74 14 255
-0.11101 0.176764 0.46 -0.00065755 0.385202 -0.922832 82 72 0 255
-0.249911 0.183581 0.46 -0.274532 0.299899 -0.913616 62 60 0 255
-0.0900128 0.190291 0.466 -0.118544 0.476026 -0.871405 75 72 3 255
-0.166127 0.183458 0.464 -0.00981952 0.340661 -0.940135 78 65 0 255
-0.105362 0.19586 0.469 0.0747623 0.442488 -0.893653 75 71 11 255
-0.209592 0.191565 0.467 0.0236464 0.397144 -0.917452 65 57 0 255
-0.223494 0.176764 0.46 0.047572 0.494137 -0.868081 64 57 0 255
0.0204414 0.192467 0.465 0.0444878 0.38072 -0.92362 90 80 4 255
-0.251615 0.181024 0.46 -0.215523 0.366084 -0.90528 65 58 0 255
0.117877 0.182667 0.462 -0.00963973 0.412278 -0.911007 85 84 5 255
-0.188425 0.186839 0.466 -0.0565522 0.377017 -0.924478 69 61 0 255
-0.234386 0.189066 0.463 0.111342 0.29241 -0.949789 63 61 0 255
0.163436 0.183853 0.465 0.0240808 0.497561 -0.867095 82 77 24 255
-0.23388 0.186946 0.462 -0.0358778 0.414582 -0.909304 63 61 0 255
-0.254171 0.181024 0.46 -0.111166 0.436539 -0.892791 66 58 0 255
-0.231349 0.174764 0.457 0.183601 0.326531 -0.927183 65 57 0 255
-0.236613 0.181481 0.459 0.1369 0.424433 -0.89505 63 62 0 255
-0.259005 0.175995 0.458 -0.14736 0.390397 -0.908777 62 60 0 255
-0.202237 0.189428 0.466 0.0459688 0.411761 -0.910131 66 59 0 255
-0.268924 0.175529 0.459 -0.146935 0.241777 -0.959142 61 52 0 255
-0.18807 0.18049 0.463 0.0305422 0.4292 -0.902693 70 62 0 255
-0.112105 0.178856 0.461 -0.0185111 0.390543 -0.920399 82 70 6 255
0.0849851 0.181024 0.46 0.0460841 0.452275 -0.890687 92 81 24 255
-0.273301 0.189022 0.465 -0.182935 0.368194 -0.911574 58 50 0 255
-0.0378068 0.189104 0.461 -0.0585101 0.348829 -0.935358 92 81 5 255
-0.00279258 0.193374 0.461 0.100065 0.386006 -0.917053 101 94 10 255
-0.210712 0.176764 0.46 0.0408794 0.428701 -0.902521 66 59 0 255
-0.149991 0.198019 0.47 -0.0312015 0.395562 -0.917909 72 66 2 255
-0.2587 0.183523 0.462 -0.0251912 0.344676 -0.938384 64 57 0 255
-0.167847 0.182599 0.464 -0.0299037 0.342456 -0.939058 76 61 0 255
0.0735314 0.189066 0.463 -0.0517055 0.338918 -0.939394 90 82 0 255
-0.208155 0.175912 0.46 0.0161667 0.455098 -0.890295 66 58 0 255
-0.112714 0.176764 0.46 -0.0167332 0.394261 -0.918846 82 72 0 255
-0.0914611 0.197598 0.469 -0.07476 0.362674 -0.928913 76 71 5 255
-0.258402 0.189924 0.463 -0.0541238 0.336452 -0.940144 61 58 0 255
-0.184819 0.197149 0.47 -0.0301076 0.356028 -0.93399 66 59 0 255
-0.25982 0.191194 0.464 -0.0634272 0.308933 -0.948966 62 55 0 255
-0.239015 0.186946 0.462 0.155388 0.447491 -0.880685 63 60 0 255
-0.0426514 0.181934 0.458 0.0408301 0.457535 -0.888254 94 85 11 255
0.0351609 0.193744 0.466 0.036211 0.439728 -0.897401 79 79 18 255
0.15999 0.183853 0.465 0.0684159 0.478808 -0.87525 82 81 0 255
-0.237303 0.186946 0.462 0.0646464 0.407708 -0.910821 61 58 0 255
-0.248967 0.194212 0.463 -0.11535 0.358227 -0.926481 60 56 0 255
0.152893 0.19243 0.467 0.13524 0.305446 -0.942557 82 78 16 255
-0.244348 0.195491 0.464 0.069271 0.280988 -0.957208 62 60 0 255
-0.0250509 0.192937 0.462 0.0434476 0.352819 -0.934682 90 82 0 255
-0.0335367 0.189104 0.461 -0.0708845 0.342948 -0.936676 92 81 5 255
-0.214263 0.186037 0.464 0.0496294 0.392385 -0.918461 63 54 0 255
0.0195378 0.189475 0.464 0.0262399 0.371297 -0.928143 94 84 3 255
0.094523 0.189883 0.465 0.0240748 0.433247 -0.900954 84 81 16 255
-0.136017 0.176294 0.461 -0.0183414 0.422168 -0.906332 81 69 3 255
0.0629201 0.197621 0.467 -0.0120637 0.362755 -0.931807 89 79 1 255
-0.0483675 0.196351 0.464 -0.0719022 0.309504 -0.948176 81 78 9 255
-0.0945796 0.185636 0.463 -0.00883697 0.404764 -0.914378 75 72 3 255
-0.238122 0.177304 0.457 0.103012 0.229661 -0.967804 63 60 0 255
-0.271214 0.176764 0.46 -0.194415 0.226411 -0.954432 58 51 0 255
-0.235244 0.189066 0.463 0.0884777 0.270994 -0.958506 63 61 0 255
0.0377507 0.192881 0.466 -0.0315962 0.443114 -0.895908 87 77 12 255
-0.234736 0.186091 0.462 -0.029023 0.43782 -0.898594 63 61 0 255
-0.234736 0.185235 0.462 -0.00800114 0.439707 -0.898106 63 61 0 255
-0.232195 0.175611 0.457 0.190094 0.330192 -0.924574 65 57 0 255
-0.262122 0.17638 0.459 -0.133439 0.341829 -0.93024 64 58 0 255
0.159302 0.179632 0.463 0.0369505 0.48121 -0.875826 84 81 16 255
-0.23798 0.182729 0.46 0.169119 0.46589 -0.868531 64 56 0 255
-0.12187 0.196729 0.469 -0.0322991 0.405522 -0.913514 75 70 2 255
-0.193216 0.181347 0.463 -0.0317331 0.389459 -0.920497 69 60 1 255
0.17353 0.194992 0.469 0.0296063 0.362914 -0.931352 79 76 11 255
-0.249181 0.195913 0.465 -0.112661 0.362665 -0.925085 62 58 0 255
-0.1751 0.185576 0.465 -0.0401225 0.339455 -0.939766 69 63 6 255
-0.23919 0.196351 0.464 0.131221 0.228082 -0.964759 65 57 0 255
0.197435 0.192842 0.468 -0.0580738 0.238602 -0.969379 76 72 12 255
-0.0903991 0.195443 0.468 -0.101267 0.359867 -0.927492 76 72 12 255
-0.0375607 0.181934 0.458 0.0594094 0.422706 -0.904317 92 82 0 255
0.212586 0.196755 0.467 -0.23406 0.314479 -0.919956 75 70 2 255
-0.226409 0.174679 0.459 0.118115 0.510269 -0.851865 65 58 0 255
-0.0898196 0.18816 0.465 -0.102334 0.482458 -0.869921 76 73 6 255
-0.213053 0.19243 0.467 0.0686678 0.40997 -0.90951 62 53 0 255
-0.176982 0.196278 0.47 0.0198244 0.325938 -0.945183 71 65 0 255
-0.185038 0.182599 0.464 0.0140057 0.373691 -0.927447 69 60 1 255
-0.0743673 0.181877 0.46 -0.082109 0.402489 -0.911735 81 70 0 255
-0.247252 0.194212 0.463 -0.063201 0.356951 -0.931983 61 56 1 255
-0.0443483 0.183631 0.458 0.0158344 0.470773 -0.882113 92 82 0 255
-0.14206 0.184318 0.464 0.0982894 0.374439 -0.922028 81 69 3 255
0.0773157 0.181024 0.46 0.00310504 0.401134 -0.916014 92 84 9 255
-0.103846 0.197149 0.47 0.0339185 0.425894 -0.904137 81 69 3 255
0.00490407 0.186091 0.462 0.222612 0.315672 -0.922386 105 94 9 255
-0.243201 0.174764 0.457 -0.0464245 0.135869 -0.989639 65 58 0 255
-0.165117 0.189428 0.466 0.0406788 0.41049 -0.910957 71 67 0 255
-0.207386 0.186037 0.464 0.0132883 0.381321 -0.924347 65 57 0 255
-0.119195 0.181811 0.462 0.000892891 0.291957 -0.956431 80 68 2 255
-0.240661 0.177304 0.457 0.027484 0.198943 -0.979626 69 61 0 255
0.00062749 0.196351 0.464 0.200341 0.3541 -0.913497 105 92 15 255
-0.241583 0.186946 0.462 0.259783 0.470192 -0.843464 66 59 0 255
-0.0845931 0.178468 0.46 -0.0557894 0.430115 -0.901049 81 72 0 255
-0.273573 0.186037 0.464 -0.190118 0.401842 -0.895756 55 46 0 255
0.223148 0.184379 0.462 -0.251859 0.269579 -0.929459 74 70 26 255
-0.192742 0.186839 0.466 0.0635191 0.411301 -0.909284 66 58 0 255
0.13386 0.1907 0.467 0.000470089 0.355907 -0.934521 89 79 16 255
0.126939 0.19416 0.467 0.0224484 0.289405 -0.956943 88 78 13 255
-0.240909 0.195491 0.464 0.106557 0.173895 -0.978982 62 59 0 255
-0.236612 0.196351 0.464 0.190824 0.302173 -0.933958 61 57 0 255
-0.236102 0.189924 0.463 0.061631 0.23042 -0.971138 66 59 0 255
-0.236102 0.189066 0.463 0.0448543 0.255412 -0.965791 63 60 0 255
-0.255876 0.181024 0.46 -0.058756 0.450268 -0.890958 63 56 0 255
-0.233552 0.177692 0.458 0.175578 0.323332 -0.929854 65 58 0 255
-0.233552 0.175995 0.458 0.174567 0.316902 -0.932255 65 55 4 255
-0.233552 0.175147 0.458 0.167594 0.296192 -0.94031 65 57 0 255
0.0101261 0.195471 0.466 0.169133 0.415957 -0.893517 98 91 7 255
0.0350854 0.191606 0.465 0.0341311 0.482559 -0.875198 82 79 12 255
-0.141447 0.1801 0.462 0.0486848 0.350945 -0.93513 78 72 6 255
-0.121954 0.189428 0.466 -0.12044 0.431334 -0.894117 79 67 0 255
-0.197929 0.174207 0.46 0.0286916 0.53487 -0.844447 69 61 0 255
-0.123871 0.198019 0.47 -0.0444468 0.392628 -0.918623 76 71 18 255
-0.0649936 0.184433 0.46 -0.0588281 0.466833 -0.882387 83 72 1 255
0.211721 0.196755 0.467 -0.237325 0.327026 -0.91473 72 71 17 255
-0.0112589 0.181086 0.458 -0.0883517 0.32848 -0.94037 96 85 0 255
-0.232814 0.190744 0.465 0.203888 0.300871 -0.931615 66 59 0 255
-0.221616 0.189883 0.465 0.103148 0.389385 -0.915281 61 52 0 255
-0.0906811 0.18816 0.465 -0.0839461 0.489978 -0.867683 76 73 6 255
-0.218561 0.185177 0.464 0.0316397 0.373144 -0.927234 63 54 0 255
0.175386 0.189835 0.467 -0.0410575 0.383399 -0.92267 76 76 19 255
0.0280122 0.186091 0.462 -0.0156305 0.363458 -0.931479 85 75 11 255
-0.1692 0.181347 0.463 -0.0329329 0.365813 -0.930106 72 67 0 255
0.0862783 0.195025 0.467 0.0646258 0.362243 -0.929841 89 79 1 255
-0.190043 0.198019 0.47 0.00154643 0.385738 -0.922607 64 60 0 255
-0.225321 0.182667 0.462 0.1783 0.350556 -0.919412 64 57 0 255
-0.0845931 0.180172 0.46 -0.0596369 0.420556 -0.905304 80 71 0 255
-0.173489 0.18049 0.463 -0.0609577 0.349506 -0.934949 69 64 0 255
-0.127447 0.185177 0.464 -0.0328414 0.401595 -0.915228 80 70 0 255
-0.0483783 0.178606 0.456 -0.0308814 0.386139 -0.921924 94 84 0 255
-0.221139 0.186037 0.464 0.106884 0.345819 -0.932194 61 52 0 255
-0.203964 0.189428 0.466 0.0292602 0.427669 -0.903462 66 59 0 255
0.100324 0.17932 0.46 -0.0221075 0.424738 -0.905047 92 84 9 255
0.0704034 0.191606 0.465 0.0260117 0.299188 -0.95384 85 84 5 255
0.183249 0.182131 0.465 0.0023603 0.384314 -0.923199 81 77 15 255
-0.240339 0.180237 0.458 0.0993475 0.32912 -0.939048 66 59 0 255
0.138157 0.186896 0.464 -0.0512377 0.380022 -0.923557 89 79 16 255
-0.204366 0.182205 0.463 0.167928 0.294354 -0.940827 69 61 0 255
0.00231627 0.182783 0.458 0.270784 0.320529 -0.90771 104 94 20 255
-0.223718 0.187756 0.464 0.154188 0.363204 -0.918863 61 56 1 255
-0.237471 0.195491 0.464 0.159094 0.257398 -0.953119 63 59 0 255
-0.236959 0.194212 0.463 0.13307 0.216058 -0.96727 63 60 0 255
0.10012 0.19416 0.467 0.0170479 0.426978 -0.904101 88 78 13 255
-0.236959 0.189924 0.463 0.0231531 0.211494 -0.977105 66 59 0 255
-0.236959 0.189066 0.463 0.0141412 0.234044 -0.972123 63 60 0 255
-0.089511 0.17723 0.459 -0.0355101 0.456949 -0.888784 82 72 0 255
-0.263822 0.17638 0.459 -0.0830283 0.304449 -0.948903 64 57 0 255
0.0904897 0.184379 0.462 0.0266155 0.413288 -0.910211 85 84 5 255
0.157587 0.181347 0.463 0.0420931 0.473164 -0.879968 83 80 13 255
-0.239685 0.184433 0.46 0.232991 0.482562 -0.844304 66 59 0 255
-0.128821 0.194992 0.469 -0.0251012 0.394913 -0.918376 80 68 2 255
-0.25926 0.189066 0.463 -0.0604213 0.30887 -0.949183 60 57 0 255
-0.259571 0.17723 0.459 -0.140355 0.371906 -0.917598 61 58 0 255
-0.225198 0.17932 0.46 0.104681 0.409865 -0.90612 64 54 1 255
-0.265523 0.17638 0.459 -0.0871146 0.284363 -0.954751 63 56 0 255
0.127804 0.19416 0.467 0.0135252 0.276119 -0.961028 88 78 13 255
-0.0893409 0.193295 0.467 -0.115444 0.367092 -0.922993 80 70 0 255
-0.194932 0.18049 0.463 -0.0809842 0.408965 -0.908949 69 61 0 255
-0.120132 0.197598 0.469 -0.0296524 0.431794 -0.901485 79 67 0 255
-0.198771 0.194576 0.468 0.0237209 0.421661 -0.906443 65 58 0 255
-0.164763 0.184715 0.465 -0.00563814 0.345147 -0.938532 78 64 0 255
-0.253319 0.181877 0.46 -0.181592 0.389117 -0.903113 62 58 0 255
0.0532895 0.197197 0.466 -0.00120861 0.45667 -0.889636 89 80 0 255
-0.241508 0.176458 0.457 -0.0147105 0.15389 -0.987978 69 62 0 255
-0.221229 0.191155 0.466 0.09011 0.384399 -0.918759 63 54 0 255
-0.267556 0.187756 0.464 -0.108285 0.339644 -0.9343 59 51 0 255
-0.17397 0.176676 0.462 -0.0873674 0.398884 -0.91283 77 63 0 255
-0.246816 0.183182 0.459 -0.149479 0.307266 -0.939811 62 58 0 255
-0.245006 0.192081 0.462 0.14259 0.332846 -0.932138 62 58 0 255
0.105762 0.198467 0.469 0.0296271 0.453201 -0.890916 81 78 9 255
