ply
format ascii 1.0
element vertex 1138
property float x
property float y
property float z
property float normal_x
property float normal_y
property float normal_z
property uchar red
property uchar green
property uchar blue
property uchar alpha
end_header
0.964721 0.415605 1.97 0 0 0 29 22 0 255
0.964721 0.412211 1.97 0 0 0 89 99 105 255
1.09743 0.465054 2.241 0 0 0 116 107 137 255
1.10478 0.46428 2.256 0 0 0 106 101 132 255
1.11947 0.454697 2.286 0 0 0 56 63 88 255
1.11947 0.450758 2.286 0 0 0 55 63 85 255
1.12681 0.449751 2.301 0 0 0 55 63 83 255
1.12681 0.445786 2.301 0 0 0 57 66 81 255
1.11947 0.438941 2.286 0 0 0 52 69 81 255
1.11947 0.435002 2.286 0 0 0 57 66 81 255
1.11947 0.431063 2.286 0 0 0 56 65 80 255
1.11947 0.427124 2.286 0 0 0 55 63 85 255
1.12681 0.425961 2.301 0 0 0 56 65 80 255
1.13465 0.420938 2.317 0 0 0 58 67 87 255
1.13465 0.416946 2.317 0 0 0 55 62 87 255
1.14248 0.415805 2.333 0 0 0 53 60 85 255
1.15032 0.414609 2.349 0 0 0 54 60 90 255
0.924235 0.618234 1.894 0 0 0 12 21 25 255
0.924235 0.61497 1.894 0 0 0 9 17 21 255
0.924235 0.611706 1.894 0 0 0 6 15 19 255
0.924235 0.608443 1.894 0 0 0 8 16 20 255
0.924235 0.605179 1.894 0 0 0 8 16 20 255
0.929115 0.605094 1.904 0 0 0 6 13 27 255
0.939851 0.605448 1.926 0 0 0 13 13 13 255
0.939851 0.59881 1.926 0 0 0 1 9 13 255
0.939851 0.595491 1.926 0 0 0 1 9 13 255
0.94473 0.591911 1.936 0 0 0 5 5 5 255
0.94473 0.588575 1.936 0 0 0 5 5 5 255
0.950098 0.588565 1.947 0 0 0 3 2 10 255
0.955954 0.585441 1.959 0 0 0 9 9 9 255
0.955954 0.582065 1.959 0 0 0 10 10 10 255
0.961322 0.581939 1.97 0 0 0 10 10 10 255
0.961322 0.578544 1.97 0 0 0 10 10 10 255
0.972545 0.568128 1.993 0 0 0 6 14 21 255
0.978401 0.568094 2.005 0 0 0 13 12 19 255
0.978401 0.564639 2.005 0 0 0 16 15 22 255
0.983769 0.560789 2.016 0 0 0 20 19 26 255
0.983769 0.557315 2.016 0 0 0 25 16 26 255
0.983769 0.553841 2.016 0 0 0 21 20 27 255
0.989625 0.546655 2.028 0 0 0 19 16 31 255
0.99548 0.546374 2.04 0 0 0 12 20 31 255
0.99548 0.542859 2.04 0 0 0 11 18 30 255
1.00182 0.521555 2.053 0 0 0 15 17 48 255
1.00768 0.517487 2.065 0 0 0 18 21 49 255
1.00768 0.513929 2.065 0 0 0 18 21 49 255
1.02622 0.512515 2.103 0 0 0 14 25 58 255
1.03257 0.512037 2.116 0 0 0 14 25 58 255
1.03891 0.500509 2.129 0 0 0 20 30 68 255
1.00537 0.518018 2.053 0 0 0 13 20 38 255
1.03891 0.49684 2.129 0 0 0 24 33 64 255
1.04574 0.492722 2.143 0 0 0 26 39 71 255
1.04574 0.489029 2.143 0 0 0 28 41 73 255
1.03891 0.482166 2.129 0 0 0 20 46 78 255
1.00182 0.461416 2.053 0 0 0 29 43 72 255
0.99548 0.454979 2.04 0 0 0 28 42 67 255
0.989625 0.448808 2.028 0 0 0 30 42 54 255
0.972545 0.43076 1.993 0 0 0 19 12 14 255
0.96669 0.424753 1.981 0 0 0 23 11 0 255
0.96669 0.421339 1.981 0 0 0 25 6 26 255
0.96669 0.417926 1.981 0 0 0 80 60 72 255
1.07941 0.462848 2.212 0 0 0 144 137 142 255
1.09356 0.465054 2.241 0 0 0 158 150 128 255
1.09356 0.461193 2.241 0 0 0 114 111 130 255
1.1082 0.45954 2.271 0 0 0 53 60 83 255
1.11552 0.454697 2.286 0 0 0 58 67 87 255
1.11552 0.450758 2.286 0 0 0 55 63 83 255
1.12284 0.445786 2.301 0 0 0 58 67 87 255
1.12284 0.437856 2.301 0 0 0 61 69 87 255
1.11552 0.431063 2.286 0 0 0 61 70 85 255
1.11552 0.427124 2.286 0 0 0 63 64 84 255
1.11552 0.423185 2.286 0 0 0 64 65 88 255
0.920967 0.618234 1.894 0 0 0 18 27 30 255
0.920967 0.61497 1.894 0 0 0 17 25 29 255
0.920967 0.611706 1.894 0 0 0 13 22 26 255
0.920967 0.608443 1.894 0 0 0 15 23 27 255
0.925829 0.605094 1.904 0 0 0 8 14 28 255
0.936527 0.59881 1.926 0 0 0 5 14 18 255
0.936527 0.595491 1.926 0 0 0 5 14 18 255
0.941389 0.591911 1.936 0 0 0 9 9 9 255
0.941389 0.588575 1.936 0 0 0 10 10 10 255
0.946738 0.588565 1.947 0 0 0 7 6 13 255
0.952573 0.585441 1.959 0 0 0 10 10 10 255
0.957922 0.585334 1.97 0 0 0 13 13 13 255
0.957922 0.581939 1.97 0 0 0 12 12 12 255
0.963271 0.581775 1.981 0 0 0 13 13 13 255
0.969106 0.574996 1.993 0 0 0 5 14 18 255
0.969106 0.571562 1.993 0 0 0 6 15 19 255
0.969106 0.568128 1.993 0 0 0 8 16 22 255
0.974941 0.568094 2.005 0 0 0 15 14 21 255
0.974941 0.564639 2.005 0 0 0 16 15 22 255
0.98029 0.564263 2.016 0 0 0 19 17 25 255
0.986125 0.546655 2.028 0 0 0 22 20 34 255
0.99196 0.542859 2.04 0 0 0 13 21 32 255
1.00412 0.524604 2.065 0 0 0 15 17 48 255
1.00412 0.517487 2.065 0 0 0 21 23 52 255
1.02892 0.512037 2.116 0 0 0 16 26 59 255
1.03524 0.504177 2.129 0 0 0 19 29 67 255
1.03524 0.500509 2.129 0 0 0 20 30 68 255
1.04204 0.500107 2.143 0 0 0 24 33 64 255
1.04837 0.495711 2.156 0 0 0 28 41 73 255
1.04837 0.488281 2.156 0 0 0 20 46 78 255
1.03524 0.474829 2.129 0 0 0 34 48 73 255
0.986125 0.445314 2.028 0 0 0 48 53 62 255
0.98029 0.439205 2.016 0 0 0 54 54 54 255
0.98029 0.435731 2.016 0 0 0 98 91 93 255
0.974941 0.429899 2.005 0 0 0 128 115 92 255
1.0897 0.465054 2.241 0 0 0 171 163 141 255
1.0897 0.461193 2.241 0 0 0 114 111 130 255
1.10428 0.455627 2.271 0 0 0 54 61 84 255
1.11158 0.454697 2.286 0 0 0 56 64 84 255
1.11158 0.450758 2.286 0 0 0 56 64 84 255
1.11887 0.445786 2.301 0 0 0 58 67 87 255
0.922544 0.618217 1.904 0 0 0 22 28 31 255
0.922544 0.605094 1.904 0 0 0 15 23 25 255
0.927873 0.60199 1.915 0 0 0 15 23 27 255
0.933203 0.602129 1.926 0 0 0 17 15 30 255
0.933203 0.59881 1.926 0 0 0 10 17 28 255
0.933203 0.595491 1.926 0 0 0 10 17 28 255
0.938048 0.591911 1.936 0 0 0 6 14 21 255
0.938048 0.588575 1.936 0 0 0 5 15 12 255
0.943378 0.588565 1.947 0 0 0 5 15 12 255
0.949193 0.585441 1.959 0 0 0 12 12 12 255
0.954522 0.585334 1.97 0 0 0 13 13 13 255
0.954522 0.581939 1.97 0 0 0 13 12 19 255
0.965667 0.578431 1.993 0 0 0 15 15 15 255
0.965667 0.574996 1.993 0 0 0 17 17 17 255
0.965667 0.571562 1.993 0 0 0 13 13 13 255
0.971481 0.571549 2.005 0 0 0 10 18 22 255
0.971481 0.568094 2.005 0 0 0 10 18 22 255
0.976811 0.567737 2.016 0 0 0 13 22 26 255
0.976811 0.564263 2.016 0 0 0 20 19 26 255
0.976811 0.560789 2.016 0 0 0 15 23 27 255
0.976811 0.557315 2.016 0 0 0 23 21 35 255
0.976811 0.553841 2.016 0 0 0 29 21 30 255
0.982625 0.553644 2.028 0 0 0 24 23 30 255
0.982625 0.546655 2.028 0 0 0 17 25 33 255
0.988439 0.542859 2.04 0 0 0 13 21 30 255
1.00055 0.53172 2.065 0 0 0 16 18 49 255
1.00055 0.528162 2.065 0 0 0 13 20 36 255
1.00055 0.524604 2.065 0 0 0 15 21 37 255
1.00685 0.517164 2.078 0 0 0 22 24 53 255
1.03156 0.500509 2.129 0 0 0 20 31 62 255
1.03835 0.500107 2.143 0 0 0 24 33 64 255
1.01044 0.517164 2.078 0 0 0 21 23 52 255
1.04464 0.495711 2.156 0 0 0 31 39 73 255
1.04464 0.488281 2.156 0 0 0 31 44 79 255
1.04464 0.480851 2.156 0 0 0 41 47 81 255
1.05143 0.480234 2.17 0 0 0 43 53 77 255
1.05143 0.472755 2.17 0 0 0 56 54 66 255
1.05821 0.472042 2.184 0 0 0 94 83 91 255
1.07178 0.474282 2.212 0 0 0 135 118 123 255
1.07856 0.473448 2.226 0 0 0 140 132 137 255
1.08583 0.461193 2.241 0 0 0 88 93 105 255
0.919258 0.611655 1.904 0 0 0 25 32 34 255
0.919258 0.608374 1.904 0 0 0 22 30 32 255
0.919258 0.605094 1.904 0 0 0 22 30 32 255
0.929879 0.602129 1.926 0 0 0 21 19 33 255
0.929879 0.59881 1.926 0 0 0 13 21 32 255
0.929879 0.595491 1.926 0 0 0 13 21 32 255
0.934707 0.591911 1.936 0 0 0 12 20 27 255
0.934707 0.588575 1.936 0 0 0 12 22 19 255
0.945812 0.585441 1.959 0 0 0 14 14 14 255
0.951123 0.585334 1.97 0 0 0 17 17 17 255
0.951123 0.581939 1.97 0 0 0 12 10 18 255
0.956434 0.581775 1.981 0 0 0 15 14 21 255
0.962227 0.578431 1.993 0 0 0 19 19 19 255
0.962227 0.574996 1.993 0 0 0 19 19 19 255
0.962227 0.571562 1.993 0 0 0 15 15 15 255
0.968021 0.571549 2.005 0 0 0 9 17 21 255
0.973332 0.571211 2.016 0 0 0 9 17 21 255
0.973332 0.567737 2.016 0 0 0 13 22 26 255
0.973332 0.564263 2.016 0 0 0 21 20 27 255
0.973332 0.560789 2.016 0 0 0 17 25 29 255
0.973332 0.557315 2.016 0 0 0 23 21 35 255
0.979125 0.557138 2.028 0 0 0 29 21 30 255
0.979125 0.553644 2.028 0 0 0 26 24 32 255
0.979125 0.546655 2.028 0 0 0 19 27 36 255
0.984919 0.546374 2.04 0 0 0 19 27 36 255
0.984919 0.542859 2.04 0 0 0 18 26 35 255
0.996989 0.524604 2.065 0 0 0 17 23 39 255
1.00327 0.517164 2.078 0 0 0 23 25 54 255
1.02789 0.500509 2.129 0 0 0 20 31 62 255
1.02789 0.49684 2.129 0 0 0 27 35 66 255
1.03465 0.492722 2.143 0 0 0 31 39 73 255
1.04092 0.488281 2.156 0 0 0 33 45 80 255
1.04768 0.487712 2.17 0 0 0 34 46 83 255
1.04768 0.483973 2.17 0 0 0 42 48 82 255
1.04768 0.480234 2.17 0 0 0 44 54 78 255
1.04768 0.472755 2.17 0 0 0 51 49 61 255
1.0612 0.475068 2.198 0 0 0 75 65 73 255
1.06796 0.474282 2.212 0 0 0 111 94 100 255
1.07472 0.473448 2.226 0 0 0 151 144 149 255
1.07472 0.469613 2.226 0 0 0 155 137 134 255
1.07472 0.465777 2.226 0 0 0 134 119 131 255
1.1868 0.386276 2.349 0 0 0 52 45 59 255
0.926556 0.602129 1.926 0 0 0 22 27 37 255
0.926556 0.59881 1.926 0 0 0 21 27 30 255
0.926556 0.595491 1.926 0 0 0 17 25 33 255
0.931366 0.591911 1.936 0 0 0 18 27 28 255
0.931366 0.588575 1.936 0 0 0 16 25 22 255
0.942431 0.588816 1.959 0 0 0 19 19 19 255
0.942431 0.585441 1.959 0 0 0 12 21 25 255
0.947723 0.585334 1.97 0 0 0 15 14 21 255
0.947723 0.581939 1.97 0 0 0 16 15 22 255
0.958788 0.578431 1.993 0 0 0 12 21 25 255
0.958788 0.574996 1.993 0 0 0 19 17 25 255
0.958788 0.571562 1.993 0 0 0 19 17 25 255
0.964561 0.571549 2.005 0 0 0 20 19 26 255
0.969853 0.567737 2.016 0 0 0 21 20 27 255
0.969853 0.564263 2.016 0 0 0 23 22 29 255
0.969853 0.560789 2.016 0 0 0 19 28 32 255
0.975626 0.560633 2.028 0 0 0 19 28 30 255
0.975626 0.557138 2.028 0 0 0 19 27 36 255
0.975626 0.553644 2.028 0 0 0 23 30 32 255
0.975626 0.546655 2.028 0 0 0 23 28 38 255
0.981399 0.546374 2.04 0 0 0 23 28 38 255
0.981399 0.542859 2.04 0 0 0 23 30 32 255
0.993426 0.524604 2.065 0 0 0 21 23 52 255
0.993426 0.521045 2.065 0 0 0 21 23 52 255
0.99968 0.517164 2.078 0 0 0 17 28 58 255
1.02421 0.504177 2.129 0 0 0 20 31 62 255
1.02421 0.500509 2.129 0 0 0 23 34 64 255
1.02421 0.49684 2.129 0 0 0 27 35 66 255
1.03095 0.492722 2.143 0 0 0 31 39 73 255
1.03095 0.489029 2.143 0 0 0 35 41 73 255
1.0372 0.488281 2.156 0 0 0 34 46 81 255
1.04394 0.487712 2.17 0 0 0 40 45 84 255
1.04394 0.483973 2.17 0 0 0 43 49 83 255
1.04394 0.480234 2.17 0 0 0 50 52 79 255
0.917959 0.59539 1.915 0 0 0 27 33 35 255
0.923232 0.595491 1.926 0 0 0 22 29 38 255
0.928025 0.591911 1.936 0 0 0 22 30 32 255
0.928025 0.588575 1.936 0 0 0 22 31 28 255
0.939051 0.588816 1.959 0 0 0 26 26 26 255
0.939051 0.585441 1.959 0 0 0 13 22 26 255
0.944323 0.585334 1.97 0 0 0 17 16 24 255
0.944323 0.581939 1.97 0 0 0 19 17 25 255
0.955349 0.574996 1.993 0 0 0 20 19 26 255
0.955349 0.571562 1.993 0 0 0 21 20 27 255
0.966374 0.571211 2.016 0 0 0 17 25 29 255
0.966374 0.567737 2.016 0 0 0 23 22 29 255
0.966374 0.564263 2.016 0 0 0 26 24 32 255
0.966374 0.560789 2.016 0 0 0 20 29 33 255
0.966374 0.557315 2.016 0 0 0 22 30 32 255
0.972126 0.557138 2.028 0 0 0 22 29 38 255
0.972126 0.553644 2.028 0 0 0 27 33 35 255
0.972126 0.546655 2.028 0 0 0 27 32 42 255
0.977878 0.546374 2.04 0 0 0 27 32 42 255
0.989862 0.524604 2.065 0 0 0 22 24 53 255
0.989862 0.521045 2.065 0 0 0 22 24 53 255
0.996094 0.517164 2.078 0 0 0 18 29 59 255
1.00808 0.512515 2.103 0 0 0 20 31 62 255
0.981399 0.535828 2.04 0 0 0 18 25 41 255
1.01431 0.512037 2.116 0 0 0 20 31 62 255
1.01431 0.508391 2.116 0 0 0 20 31 62 255
1.02054 0.504177 2.129 0 0 0 20 31 62 255
1.02054 0.500509 2.129 0 0 0 23 34 64 255
1.02054 0.49684 2.129 0 0 0 27 35 66 255
1.02725 0.489029 2.143 0 0 0 37 44 76 255
1.04019 0.483973 2.17 0 0 0 43 49 83 255
1.04019 0.480234 2.17 0 0 0 51 54 80 255
0.919908 0.595491 1.926 0 0 0 29 34 44 255
0.924685 0.591911 1.936 0 0 0 28 34 37 255
0.924685 0.588575 1.936 0 0 0 25 32 34 255
0.93567 0.588816 1.959 0 0 0 22 28 31 255
0.93567 0.585441 1.959 0 0 0 19 28 30 255
0.940924 0.585334 1.97 0 0 0 21 20 25 255
0.940924 0.581939 1.97 0 0 0 23 22 29 255
0.951909 0.574996 1.993 0 0 0 21 20 27 255
0.951909 0.571562 1.993 0 0 0 17 25 29 255
0.957641 0.568094 2.005 0 0 0 17 26 27 255
0.962895 0.567737 2.016 0 0 0 21 20 27 255
0.962895 0.564263 2.016 0 0 0 27 26 31 255
0.962895 0.560789 2.016 0 0 0 24 30 39 255
0.962895 0.557315 2.016 0 0 0 25 31 40 255
0.968626 0.557138 2.028 0 0 0 28 33 43 255
0.968626 0.553644 2.028 0 0 0 28 33 43 255
0.968626 0.546655 2.028 0 0 0 28 32 47 255
0.974358 0.546374 2.04 0 0 0 29 34 44 255
0.974358 0.542859 2.04 0 0 0 29 35 38 255
0.974358 0.535828 2.04 0 0 0 29 34 44 255
0.980567 0.535706 2.053 0 0 0 24 37 44 255
0.986298 0.535278 2.065 0 0 0 24 30 39 255
0.986298 0.53172 2.065 0 0 0 25 28 54 255
0.986298 0.528162 2.065 0 0 0 14 26 52 255
0.986298 0.524604 2.065 0 0 0 23 24 60 255
0.986298 0.521045 2.065 0 0 0 19 31 56 255
0.992508 0.517164 2.078 0 0 0 22 30 62 255
0.998239 0.512948 2.09 0 0 0 23 32 63 255
1.00445 0.512515 2.103 0 0 0 23 32 63 255
1.01066 0.508391 2.116 0 0 0 20 30 68 255
1.01687 0.489503 2.129 0 0 0 31 39 73 255
1.03645 0.483973 2.17 0 0 0 43 49 81 255
1.03645 0.480234 2.17 0 0 0 46 56 82 255
1.18275 0.386276 2.349 0 0 0 45 38 52 255
0.916585 0.595491 1.926 0 0 0 30 35 45 255
0.916585 0.592173 1.926 0 0 0 31 38 40 255
0.921344 0.591911 1.936 0 0 0 29 35 38 255
0.921344 0.588575 1.936 0 0 0 27 33 35 255
0.932289 0.592192 1.959 0 0 0 27 33 35 255
0.932289 0.588816 1.959 0 0 0 27 33 35 255
0.937524 0.588728 1.97 0 0 0 22 30 32 255
0.937524 0.585334 1.97 0 0 0 27 26 31 255
0.937524 0.581939 1.97 0 0 0 26 24 32 255
0.94847 0.574996 1.993 0 0 0 23 22 29 255
0.94847 0.571562 1.993 0 0 0 15 23 27 255
0.94847 0.568128 1.993 0 0 0 26 24 32 255
0.954181 0.568094 2.005 0 0 0 22 30 32 255
0.954181 0.564639 2.005 0 0 0 26 24 32 255
0.959416 0.560789 2.016 0 0 0 25 31 40 255
0.965126 0.557138 2.028 0 0 0 28 33 43 255
0.965126 0.553644 2.028 0 0 0 29 34 44 255
0.965126 0.546655 2.028 0 0 0 27 31 46 255
0.970837 0.546374 2.04 0 0 0 30 35 45 255
0.977024 0.535706 2.053 0 0 0 28 40 47 255
0.977024 0.532168 2.053 0 0 0 29 34 44 255
0.982735 0.53172 2.065 0 0 0 25 28 54 255
0.982735 0.528162 2.065 0 0 0 18 30 55 255
0.988921 0.524326 2.078 0 0 0 20 32 58 255
0.988921 0.520745 2.078 0 0 0 20 31 62 255
0.988921 0.517164 2.078 0 0 0 24 33 64 255
0.994632 0.512948 2.09 0 0 0 27 35 66 255
1.00082 0.512515 2.103 0 0 0 24 33 64 255
1.01319 0.489503 2.129 0 0 0 33 42 75 255
1.01985 0.489029 2.143 0 0 0 40 46 78 255
1.0327 0.483973 2.17 0 0 0 37 44 76 255
0.918003 0.591911 1.936 0 0 0 31 38 40 255
0.918003 0.588575 1.936 0 0 0 31 39 36 255
0.928909 0.588816 1.959 0 0 0 28 34 37 255
0.934124 0.588728 1.97 0 0 0 27 32 42 255
0.934124 0.585334 1.97 0 0 0 25 31 40 255
0.934124 0.581939 1.97 0 0 0 25 32 34 255
0.945031 0.571562 1.993 0 0 0 22 29 27 255
0.945031 0.568128 1.993 0 0 0 27 26 31 255
0.950721 0.564639 2.005 0 0 0 22 27 37 255
0.955937 0.560789 2.016 0 0 0 28 33 43 255
0.961627 0.553644 2.028 0 0 0 31 37 46 255
0.961627 0.546655 2.028 0 0 0 31 37 46 255
0.967317 0.546374 2.04 0 0 0 34 39 48 255
0.967317 0.542859 2.04 0 0 0 34 39 48 255
0.973481 0.535706 2.053 0 0 0 36 41 51 255
0.973481 0.532168 2.053 0 0 0 28 40 47 255
0.979171 0.53172 2.065 0 0 0 24 36 48 255
0.979171 0.528162 2.065 0 0 0 28 32 47 255
0.985335 0.524326 2.078 0 0 0 22 30 62 255
0.985335 0.520745 2.078 0 0 0 22 30 62 255
0.991026 0.512948 2.09 0 0 0 27 34 70 255
1.02896 0.487712 2.17 0 0 0 43 40 61 255
0.914662 0.591911 1.936 0 0 0 35 41 44 255
0.925528 0.588816 1.959 0 0 0 31 38 40 255
0.925528 0.585441 1.959 0 0 0 29 34 44 255
0.930725 0.585334 1.97 0 0 0 28 33 43 255
0.930725 0.581939 1.97 0 0 0 27 33 35 255
0.941591 0.571562 1.993 0 0 0 28 35 33 255
0.941591 0.568128 1.993 0 0 0 30 29 34 255
0.947261 0.564639 2.005 0 0 0 28 33 43 255
0.947261 0.557729 2.005 0 0 0 29 34 44 255
0.958127 0.553644 2.028 0 0 0 34 39 48 255
0.958127 0.546655 2.028 0 0 0 36 41 51 255
0.963796 0.546374 2.04 0 0 0 35 40 50 255
0.969938 0.535706 2.053 0 0 0 37 42 52 255
0.975608 0.535278 2.065 0 0 0 31 44 51 255
0.975608 0.53172 2.065 0 0 0 29 41 53 255
0.981749 0.531487 2.078 0 0 0 34 38 53 255
0.981749 0.527906 2.078 0 0 0 24 34 60 255
0.981749 0.524326 2.078 0 0 0 24 33 64 255
0.993561 0.516139 2.103 0 0 0 28 35 72 255
0.999702 0.497452 2.116 0 0 0 22 27 78 255
1.1787 0.386276 2.349 0 0 0 40 37 54 255
0.916499 0.588565 1.947 0 0 0 29 41 48 255
0.922147 0.588816 1.959 0 0 0 29 41 48 255
0.922147 0.585441 1.959 0 0 0 28 40 47 255
0.927325 0.585334 1.97 0 0 0 29 34 44 255
0.927325 0.581939 1.97 0 0 0 29 34 44 255
0.927325 0.578544 1.97 0 0 0 28 33 43 255
0.938152 0.571562 1.993 0 0 0 29 34 44 255
0.938152 0.568128 1.993 0 0 0 28 33 43 255
0.943801 0.564639 2.005 0 0 0 32 38 47 255
0.943801 0.557729 2.005 0 0 0 31 37 46 255
0.948978 0.557315 2.016 0 0 0 32 38 47 255
0.948978 0.553841 2.016 0 0 0 34 39 48 255
0.954627 0.553644 2.028 0 0 0 37 42 52 255
0.954627 0.546655 2.028 0 0 0 38 44 53 255
0.960276 0.546374 2.04 0 0 0 38 44 53 255
0.966395 0.539243 2.053 0 0 0 42 48 51 255
0.972044 0.538837 2.065 0 0 0 39 45 54 255
0.972044 0.535278 2.065 0 0 0 38 44 53 255
0.972044 0.53172 2.065 0 0 0 33 45 57 255
0.978163 0.531487 2.078 0 0 0 31 41 65 255
0.978163 0.527906 2.078 0 0 0 31 33 64 255
0.978163 0.524326 2.078 0 0 0 28 36 67 255
0.996051 0.519329 2.116 0 0 0 34 35 69 255
0.918767 0.588816 1.959 0 0 0 30 43 50 255
0.918767 0.585441 1.959 0 0 0 29 41 48 255
0.923926 0.585334 1.97 0 0 0 34 39 48 255
0.923926 0.581939 1.97 0 0 0 34 39 48 255
0.923926 0.578544 1.97 0 0 0 32 38 47 255
0.929085 0.571534 1.981 0 0 0 32 38 47 255
0.934713 0.571562 1.993 0 0 0 34 39 48 255
0.934713 0.568128 1.993 0 0 0 34 39 48 255
0.940341 0.564639 2.005 0 0 0 36 41 51 255
0.940341 0.557729 2.005 0 0 0 37 42 52 255
0.951127 0.553644 2.028 0 0 0 43 48 58 255
0.951127 0.546655 2.028 0 0 0 43 48 58 255
0.956755 0.546374 2.04 0 0 0 41 46 55 255
0.962852 0.539243 2.053 0 0 0 45 52 54 255
0.96848 0.538837 2.065 0 0 0 43 48 58 255
0.96848 0.535278 2.065 0 0 0 43 48 58 255
0.974577 0.535068 2.078 0 0 0 37 49 61 255
0.974577 0.531487 2.078 0 0 0 35 44 68 255
0.974577 0.527906 2.078 0 0 0 37 39 70 255
0.974577 0.524326 2.078 0 0 0 29 37 69 255
1.17464 0.386276 2.349 0 0 0 38 36 53 255
0.915386 0.588816 1.959 0 0 0 38 44 53 255
0.915386 0.585441 1.959 0 0 0 35 47 54 255
0.920526 0.585334 1.97 0 0 0 37 42 52 255
0.920526 0.581939 1.97 0 0 0 37 42 52 255
0.925666 0.571534 1.981 0 0 0 41 39 51 255
0.931273 0.571562 1.993 0 0 0 41 39 51 255
0.931273 0.568128 1.993 0 0 0 38 44 53 255
0.93688 0.564639 2.005 0 0 0 42 47 57 255
0.947628 0.553644 2.028 0 0 0 43 47 62 255
0.947628 0.546655 2.028 0 0 0 44 49 63 255
0.964917 0.538837 2.065 0 0 0 46 49 73 255
0.964917 0.535278 2.065 0 0 0 40 51 72 255
0.970991 0.535068 2.078 0 0 0 39 51 63 255
0.970991 0.527906 2.078 0 0 0 41 45 60 255
0.970991 0.524326 2.078 0 0 0 44 42 58 255
0.970991 0.520745 2.078 0 0 0 36 31 33 255
0.912005 0.588816 1.959 0 0 0 39 45 54 255
0.912005 0.585441 1.959 0 0 0 35 47 54 255
0.912005 0.582065 1.959 0 0 0 38 44 53 255
0.917126 0.581939 1.97 0 0 0 38 44 53 255
0.917126 0.578544 1.97 0 0 0 43 41 53 255
0.927834 0.574996 1.993 0 0 0 43 41 53 255
0.927834 0.571562 1.993 0 0 0 44 42 54 255
0.927834 0.568128 1.993 0 0 0 39 45 54 255
0.93342 0.564639 2.005 0 0 0 42 47 57 255
0.938541 0.557315 2.016 0 0 0 44 49 59 255
0.944128 0.557138 2.028 0 0 0 44 49 63 255
0.944128 0.553644 2.028 0 0 0 44 49 63 255
0.944128 0.546655 2.028 0 0 0 46 51 65 255
0.955767 0.535706 2.053 0 0 0 46 49 73 255
0.961353 0.535278 2.065 0 0 0 39 49 71 255
0.961353 0.53172 2.065 0 0 0 36 48 60 255
0.961353 0.528162 2.065 0 0 0 37 42 56 255
0.967405 0.527906 2.078 0 0 0 35 39 54 255
0.967405 0.524326 2.078 0 0 0 44 42 58 255
0.913727 0.578544 1.97 0 0 0 43 38 67 255
0.924394 0.574996 1.993 0 0 0 44 42 58 255
0.924394 0.571562 1.993 0 0 0 45 43 55 255
0.924394 0.568128 1.993 0 0 0 43 47 62 255
0.92996 0.568094 2.005 0 0 0 43 48 58 255
0.92996 0.564639 2.005 0 0 0 44 49 59 255
0.935062 0.557315 2.016 0 0 0 45 50 64 255
0.940628 0.557138 2.028 0 0 0 52 50 66 255
0.940628 0.553644 2.028 0 0 0 48 51 73 255
0.940628 0.546655 2.028 0 0 0 49 52 76 255
0.946194 0.535828 2.04 0 0 0 50 47 64 255
0.952224 0.535706 2.053 0 0 0 58 44 49 255
0.95779 0.535278 2.065 0 0 0 45 44 35 255
0.95779 0.53172 2.065 0 0 0 48 41 43 255
0.905244 0.595568 1.959 0 0 0 44 49 59 255
0.910327 0.578544 1.97 0 0 0 43 38 67 255
0.920955 0.574996 1.993 0 0 0 47 44 61 255
0.920955 0.571562 1.993 0 0 0 49 47 59 255
0.920955 0.568128 1.993 0 0 0 45 50 64 255
0.9265 0.568094 2.005 0 0 0 46 52 61 255
0.9265 0.564639 2.005 0 0 0 46 52 61 255
0.931583 0.557315 2.016 0 0 0 49 53 68 255
0.937128 0.557138 2.028 0 0 0 55 52 69 255
0.937128 0.553644 2.028 0 0 0 50 53 75 255
0.937128 0.550149 2.028 0 0 0 46 49 73 255
0.942674 0.549889 2.04 0 0 0 49 52 76 255
0.906927 0.598912 1.97 0 0 0 51 49 61 255
0.906927 0.595517 1.97 0 0 0 46 52 61 255
0.906927 0.592123 1.97 0 0 0 44 49 59 255
0.917516 0.574996 1.993 0 0 0 48 45 62 255
0.917516 0.571562 1.993 0 0 0 50 46 72 255
0.917516 0.568128 1.993 0 0 0 48 51 75 255
0.92304 0.568094 2.005 0 0 0 48 51 75 255
0.92304 0.564639 2.005 0 0 0 48 52 66 255
0.928104 0.564263 2.016 0 0 0 48 53 62 255
0.928104 0.560789 2.016 0 0 0 45 51 60 255
0.928104 0.557315 2.016 0 0 0 49 53 68 255
0.933629 0.557138 2.028 0 0 0 63 50 59 255
0.933629 0.553644 2.028 0 0 0 52 52 52 255
0.903528 0.588728 1.97 0 0 0 45 51 60 255
0.914076 0.574996 1.993 0 0 0 51 48 65 255
0.924625 0.560789 2.016 0 0 0 41 46 55 255
0.924625 0.557315 2.016 0 0 0 41 45 60 255
0.930129 0.557138 2.028 0 0 0 56 43 52 255
0.930129 0.553644 2.028 0 0 0 62 62 62 255
0.967317 0.535828 2.04 0 0 0 36 42 45 255
0.999702 0.501099 2.116 0 0 0 23 29 75 255
0.991919 0.49368 1.97 0 0 0 7 0 0 255
0.987201 0.496437 1.981 0 0 0 9 2 5 255
0.987201 0.493023 1.981 0 0 0 5 3 11 255
1.00604 0.528798 2.04 0 0 0 13 10 27 255
1.00252 0.521768 2.04 0 0 0 8 14 32 255
0.983783 0.48961 1.981 0 0 0 5 3 11 255
1.02526 0.512037 2.116 0 0 0 16 27 57 255
1.02526 0.508391 2.116 0 0 0 17 27 60 255
1.02161 0.512037 2.116 0 0 0 19 30 61 255
1.02161 0.508391 2.116 0 0 0 16 26 59 255
0.997457 0.574948 1.981 0 0 0 0 0 0 255
1.00537 0.468491 2.053 0 0 0 33 38 77 255
1.01796 0.512037 2.116 0 0 0 20 31 62 255
1.01796 0.508391 2.116 0 0 0 19 30 61 255
0.977878 0.542859 2.04 0 0 0 28 34 37 255
0.977878 0.539344 2.04 0 0 0 25 31 40 255
0.977878 0.535828 2.04 0 0 0 22 28 44 255
1.01066 0.512037 2.116 0 0 0 20 30 68 255
1.00701 0.512037 2.116 0 0 0 21 31 69 255
0.970837 0.542859 2.04 0 0 0 31 38 40 255
0.970837 0.535828 2.04 0 0 0 32 38 47 255
1.00335 0.515683 2.116 0 0 0 27 34 70 255
1.00335 0.512037 2.116 0 0 0 29 29 72 255
0.999702 0.515683 2.116 0 0 0 28 35 72 255
0.999702 0.512037 2.116 0 0 0 30 30 73 255
0.980364 0.411099 1.981 0 0 0 15 18 53 255
1.14739 0.443887 2.271 0 0 0 53 61 79 255
0.963796 0.542859 2.04 0 0 0 34 39 48 255
0.963796 0.535828 2.04 0 0 0 39 46 48 255
0.996051 0.512037 2.116 0 0 0 34 33 81 255
0.976945 0.411099 1.981 0 0 0 0 0 35 255
0.960276 0.542859 2.04 0 0 0 37 42 56 255
0.956755 0.542859 2.04 0 0 0 39 44 58 255
0.956755 0.539344 2.04 0 0 0 44 49 63 255
0.964721 0.57515 1.97 0 0 0 9 8 15 255
0.973527 0.411099 1.981 0 0 0 33 24 54 255
1.13956 0.443887 2.271 0 0 0 59 60 80 255
0.975985 0.434194 1.993 0 0 0 6 10 43 255
0.953235 0.546374 2.04 0 0 0 46 51 65 255
0.953235 0.542859 2.04 0 0 0 43 47 62 255
0.953235 0.535828 2.04 0 0 0 46 49 73 255
1.13564 0.443887 2.271 0 0 0 59 60 80 255
0.949714 0.546374 2.04 0 0 0 46 51 65 255
0.949714 0.542859 2.04 0 0 0 46 51 65 255
0.949714 0.535828 2.04 0 0 0 46 49 73 255
0.946194 0.546374 2.04 0 0 0 54 51 68 255
0.946194 0.542859 2.04 0 0 0 54 52 64 255
1.1278 0.45954 2.271 0 0 0 57 54 71 255
1.12388 0.45954 2.271 0 0 0 52 58 67 255
0.955401 0.601813 1.904 0 0 0 0 0 0 255
0.952115 0.601813 1.904 0 0 0 0 1 0 255
1.11604 0.463453 2.271 0 0 0 56 55 58 255
1.11604 0.45954 2.271 0 0 0 48 54 88 255
0.942258 0.601813 1.904 0 0 0 0 0 0 255
0.980364 0.407685 1.981 0 0 0 43 49 52 255
0.976945 0.407685 1.981 0 0 0 34 40 42 255
0.935687 0.601813 1.904 0 0 0 3 2 10 255
0.913727 0.581939 1.97 0 0 0 38 43 57 255
0.910327 0.581939 1.97 0 0 0 39 44 58 255
0.922544 0.614936 1.904 0 0 0 21 27 30 255
0.922544 0.611655 1.904 0 0 0 20 26 28 255
0.922544 0.608374 1.904 0 0 0 15 23 25 255
1.05067 0.475805 2.184 0 0 0 50 51 74 255
1.0469 0.475805 2.184 0 0 0 55 56 78 255
0.994039 0.564707 1.981 0 0 0 1 0 7 255
0.99062 0.561294 1.981 0 0 0 5 5 5 255
0.987201 0.564707 1.981 0 0 0 3 2 10 255
0.987201 0.561294 1.981 0 0 0 0 7 11 255
0.980364 0.568121 1.981 0 0 0 7 7 7 255
0.976945 0.568121 1.981 0 0 0 9 9 9 255
0.973527 0.568121 1.981 0 0 0 10 9 17 255
0.987248 0.4531 2.016 0 0 0 21 32 63 255
0.963271 0.578361 1.981 0 0 0 12 10 18 255
0.959852 0.581775 1.981 0 0 0 13 12 19 255
0.959852 0.578361 1.981 0 0 0 14 13 20 255
1.13564 0.439974 2.271 0 0 0 60 61 81 255
1.13564 0.436061 2.271 0 0 0 55 63 85 255
0.924569 0.621789 1.915 0 0 0 25 32 34 255
1.13172 0.443887 2.271 0 0 0 59 60 80 255
1.13172 0.439974 2.271 0 0 0 54 62 80 255
0.953015 0.581775 1.981 0 0 0 17 16 24 255
0.935922 0.571534 1.981 0 0 0 27 33 35 255
0.932503 0.571534 1.981 0 0 0 31 37 46 255
1.20708 0.39564 2.381 0 0 0 49 47 59 255
1.20708 0.391538 2.381 0 0 0 55 54 59 255
1.00812 0.529525 2.016 0 0 0 3 2 10 255
1.00116 0.54342 2.016 0 0 0 4 13 17 255
0.997685 0.54342 2.016 0 0 0 4 11 25 255
0.994206 0.550368 2.016 0 0 0 6 13 27 255
0.994206 0.54342 2.016 0 0 0 6 13 27 255
0.990727 0.550368 2.016 0 0 0 9 18 15 255
0.987248 0.550368 2.016 0 0 0 15 24 21 255
0.983769 0.550368 2.016 0 0 0 21 20 27 255
1.17448 0.392982 2.365 0 0 0 32 33 72 255
1.013 0.537 2.005 0 0 0 0 0 5 255
0.98638 0.423411 1.959 0 0 0 13 13 13 255
1.18275 0.414609 2.349 0 0 0 51 64 69 255
1.14248 0.407765 2.333 0 0 0 53 60 85 255
0.976238 0.436914 1.959 0 0 0 4 14 10 255
1.12837 0.449608 2.241 0 0 0 53 65 75 255
0.976238 0.433538 1.959 0 0 0 8 8 8 255
0.93688 0.557729 2.005 0 0 0 36 48 55 255
1.11996 0.4478 2.271 0 0 0 60 61 81 255
0.92996 0.561184 2.005 0 0 0 45 50 64 255
0.92996 0.557729 2.005 0 0 0 42 53 65 255
0.980364 0.469129 1.981 0 0 0 4 10 29 255
0.9265 0.557729 2.005 0 0 0 42 53 65 255
0.953458 0.58521 1.947 0 0 0 3 7 0 255
0.950098 0.58521 1.947 0 0 0 8 8 8 255
1.13172 0.455627 2.271 0 0 0 57 62 74 255
1.00262 0.512816 2.005 0 0 0 8 1 3 255
0.943378 0.58521 1.947 0 0 0 13 14 5 255
1.1278 0.455627 2.271 0 0 0 58 63 75 255
0.940018 0.58521 1.947 0 0 0 19 20 11 255
0.999161 0.512816 2.005 0 0 0 2 1 8 255
1.12388 0.455627 2.271 0 0 0 61 62 82 255
1.20708 0.412052 2.381 0 0 0 27 28 62 255
1.11996 0.455627 2.271 0 0 0 60 61 81 255
0.929938 0.588565 1.947 0 0 0 23 30 32 255
1.0212 0.506422 2.078 0 0 0 10 22 47 255
1.013 0.509361 2.005 0 0 0 7 0 0 255
1.013 0.505906 2.005 0 0 0 7 0 2 255
1.11212 0.455627 2.271 0 0 0 55 61 91 255
0.98029 0.550368 2.016 0 0 0 23 22 29 255
1.0116 0.539946 2.016 0 0 0 0 0 5 255
1.0116 0.536472 2.016 0 0 0 2 1 8 255
1.00604 0.521768 2.04 0 0 0 10 8 25 255
1.05143 0.476495 2.17 0 0 0 45 49 70 255
1.00262 0.516271 2.005 0 0 0 8 1 3 255
1.04464 0.484566 2.156 0 0 0 34 46 83 255
1.04768 0.476495 2.17 0 0 0 49 52 74 255
0.999161 0.516271 2.005 0 0 0 5 3 11 255
0.930149 0.611379 1.873 0 0 0 0 6 2 255
0.999001 0.521768 2.04 0 0 0 11 17 36 255
0.995701 0.509361 2.005 0 0 0 2 1 8 255
0.926917 0.614606 1.873 0 0 0 5 3 11 255
0.926917 0.611379 1.873 0 0 0 0 8 12 255
1.01062 0.532677 2.028 0 0 0 5 3 11 255
0.97492 0.432578 1.97 0 0 0 13 12 19 255
1.0824 0.469613 2.226 0 0 0 145 125 137 255
1.02054 0.489503 2.129 0 0 0 30 38 72 255
1.04574 0.496414 2.143 0 0 0 28 36 67 255
1.05067 0.479569 2.184 0 0 0 54 54 79 255
1.04204 0.496414 2.143 0 0 0 28 36 67 255
1.00768 0.521045 2.065 0 0 0 13 20 36 255
1.0469 0.479569 2.184 0 0 0 55 56 80 255
1.00412 0.521045 2.065 0 0 0 17 23 39 255
1.03835 0.496414 2.143 0 0 0 28 36 67 255
1.00182 0.525093 2.053 0 0 0 13 14 46 255
0.998281 0.525093 2.053 0 0 0 14 16 47 255
1.00055 0.521045 2.065 0 0 0 18 25 41 255
1.03465 0.496414 2.143 0 0 0 28 36 67 255
0.976238 0.423411 1.959 0 0 0 9 18 15 255
0.959416 0.557315 2.016 0 0 0 27 32 42 255
0.972857 0.426787 1.959 0 0 0 12 12 12 255
0.996989 0.521045 2.065 0 0 0 20 27 43 255
1.02259 0.512515 2.103 0 0 0 16 26 59 255
1.02161 0.504745 2.116 0 0 0 19 29 67 255
1.01267 0.516549 2.09 0 0 0 13 31 61 255
1.13982 0.468167 2.256 0 0 0 8 14 32 255
0.996094 0.513584 2.078 0 0 0 20 31 62 255
1.00685 0.520745 2.078 0 0 0 22 24 53 255
1.01066 0.504745 2.116 0 0 0 21 31 69 255
0.992508 0.513584 2.078 0 0 0 17 35 63 255
1.02232 0.488281 2.156 0 0 0 39 42 66 255
1.00701 0.504745 2.116 0 0 0 21 31 69 255
0.99968 0.520745 2.078 0 0 0 14 25 58 255
1.00335 0.504745 2.116 0 0 0 27 33 76 255
0.996989 0.53172 2.065 0 0 0 17 19 50 255
0.996989 0.528162 2.065 0 0 0 19 26 42 255
0.996094 0.520745 2.078 0 0 0 17 27 60 255
0.98029 0.560789 2.016 0 0 0 21 20 27 255
0.999702 0.504745 2.116 0 0 0 27 33 76 255
0.993426 0.528162 2.065 0 0 0 21 23 52 255
0.992508 0.520745 2.078 0 0 0 20 31 62 255
0.936658 0.588565 1.947 0 0 0 17 25 29 255
0.933298 0.588565 1.947 0 0 0 19 28 32 255
0.982735 0.524604 2.065 0 0 0 24 25 61 255
0.923218 0.588565 1.947 0 0 0 27 40 40 255
0.979171 0.524604 2.065 0 0 0 22 31 58 255
0.981749 0.520745 2.078 0 0 0 24 33 64 255
1.01062 0.539666 2.028 0 0 0 6 5 12 255
1.01062 0.536171 2.028 0 0 0 7 6 13 255
0.978163 0.520745 2.078 0 0 0 32 34 67 255
0.974577 0.520745 2.078 0 0 0 32 34 67 255
0.996621 0.547523 1.993 0 0 0 0 5 12 255
1.13172 0.4478 2.271 0 0 0 60 61 83 255
1.1278 0.4478 2.271 0 0 0 61 62 84 255
1.01761 0.513584 2.078 0 0 0 16 18 49 255
1.12388 0.451714 2.271 0 0 0 63 64 84 255
1.12388 0.4478 2.271 0 0 0 60 61 81 255
1.01402 0.513584 2.078 0 0 0 13 24 57 255
1.04837 0.491996 2.156 0 0 0 30 43 75 255
1.11996 0.451714 2.271 0 0 0 60 61 81 255
1.01044 0.513584 2.078 0 0 0 16 26 59 255
1.04464 0.491996 2.156 0 0 0 33 38 75 255
1.01796 0.504745 2.116 0 0 0 20 31 62 255
1.01431 0.504745 2.116 0 0 0 21 32 63 255
0.933008 0.595272 1.853 0 0 0 0 0 0 255
1.04092 0.491996 2.156 0 0 0 35 40 77 255
1.00891 0.535706 2.053 0 0 0 6 12 33 255
1.00891 0.532168 2.053 0 0 0 6 13 31 255
0.996624 0.54316 2.028 0 0 0 8 14 32 255
1.00537 0.535706 2.053 0 0 0 8 13 34 255
1.00537 0.532168 2.053 0 0 0 8 14 32 255
0.993124 0.54316 2.028 0 0 0 8 14 32 255
1.00182 0.542781 2.053 0 0 0 12 18 37 255
1.00182 0.535706 2.053 0 0 0 10 16 34 255
1.00182 0.532168 2.053 0 0 0 9 15 31 255
0.998281 0.535706 2.053 0 0 0 12 18 37 255
1.00335 0.508391 2.116 0 0 0 31 31 72 255
0.994738 0.535706 2.053 0 0 0 15 21 37 255
0.994738 0.532168 2.053 0 0 0 15 17 48 255
1.0035 0.550957 1.993 0 0 0 0 0 6 255
0.991195 0.535706 2.053 0 0 0 17 23 39 255
0.982625 0.54316 2.028 0 0 0 17 25 33 255
0.996621 0.550957 1.993 0 0 0 3 2 10 255
0.987653 0.535706 2.053 0 0 0 18 25 41 255
0.936613 0.598469 1.873 0 0 0 0 0 0 255
0.986125 0.54316 2.028 0 0 0 13 21 32 255
0.926612 0.604851 1.853 0 0 0 0 0 0 255
0.996051 0.515683 2.116 0 0 0 34 34 75 255
0.993124 0.550149 2.028 0 0 0 10 17 28 255
0.988781 0.561184 2.005 0 0 0 12 10 18 255
0.989625 0.550149 2.028 0 0 0 20 17 32 255
0.983783 0.404272 1.981 0 0 0 46 53 55 255
0.986303 0.564694 1.993 0 0 0 1 10 7 255
0.986125 0.550149 2.028 0 0 0 22 20 34 255
0.980364 0.404272 1.981 0 0 0 43 47 62 255
0.985321 0.561184 2.005 0 0 0 13 13 13 255
1.01896 0.512515 2.103 0 0 0 17 28 58 255
0.982625 0.550149 2.028 0 0 0 18 26 35 255
1.01534 0.512515 2.103 0 0 0 19 30 61 255
0.979125 0.550149 2.028 0 0 0 19 27 36 255
0.97832 0.459735 1.97 0 0 0 9 8 15 255
0.976238 0.57869 1.959 0 0 0 2 2 2 255
1.07856 0.469613 2.226 0 0 0 147 129 126 255
0.975626 0.550149 2.028 0 0 0 24 30 39 255
0.913139 0.588565 1.947 0 0 0 32 45 52 255
0.983783 0.561294 1.981 0 0 0 1 9 13 255
0.973527 0.571534 1.981 0 0 0 1 9 13 255
0.970108 0.571534 1.981 0 0 0 1 9 13 255
0.96669 0.571534 1.981 0 0 0 5 14 18 255
0.966096 0.57869 1.959 0 0 0 3 3 3 255
0.931866 0.601664 1.883 0 0 0 3 3 3 255
0.997457 0.578361 1.981 0 0 0 0 0 0 255
0.960178 0.58521 1.947 0 0 0 3 5 0 255
0.931178 0.60199 1.915 0 0 0 19 19 19 255
0.924569 0.60199 1.915 0 0 0 20 29 33 255
0.950721 0.561184 2.005 0 0 0 27 32 42 255
0.947261 0.561184 2.005 0 0 0 28 33 43 255
0.946738 0.58521 1.947 0 0 0 12 12 12 255
0.944128 0.550149 2.028 0 0 0 46 51 65 255
0.97832 0.419 1.97 0 0 0 13 12 19 255
0.943801 0.561184 2.005 0 0 0 31 37 46 255
0.940341 0.561184 2.005 0 0 0 36 41 51 255
0.940628 0.550149 2.028 0 0 0 49 52 76 255
0.981861 0.440263 2.005 0 0 0 19 13 47 255
0.942759 0.581775 1.981 0 0 0 27 26 31 255
0.942759 0.578361 1.981 0 0 0 19 28 32 255
0.942759 0.574948 1.981 0 0 0 23 22 29 255
0.93688 0.561184 2.005 0 0 0 39 45 54 255
0.93934 0.578361 1.981 0 0 0 24 30 39 255
0.974799 0.595247 1.936 0 0 0 0 0 0 255
0.933629 0.550149 2.028 0 0 0 49 48 40 255
0.93342 0.561184 2.005 0 0 0 43 48 58 255
0.935922 0.578361 1.981 0 0 0 28 33 43 255
0.96669 0.578361 1.981 0 0 0 12 10 18 255
0.969764 0.602129 1.926 0 0 0 0 0 0 255
0.9265 0.561184 2.005 0 0 0 46 51 65 255
0.956818 0.588565 1.947 0 0 0 3 5 0 255
0.956818 0.58521 1.947 0 0 0 2 6 0 255
0.964776 0.598583 1.936 0 0 0 0 0 4 255
0.961101 0.571549 2.005 0 0 0 21 20 27 255
1.013 0.533545 2.005 0 0 0 0 0 6 255
0.957641 0.571549 2.005 0 0 0 21 20 27 255
0.997457 0.55788 1.981 0 0 0 0 1 5 255
0.997457 0.554467 1.981 0 0 0 0 0 4 255
0.994039 0.55788 1.981 0 0 0 0 0 6 255
0.994039 0.554467 1.981 0 0 0 0 2 6 255
0.959793 0.602129 1.926 0 0 0 0 1 0 255
0.957616 0.60199 1.915 0 0 0 0 0 0 255
0.957616 0.59869 1.915 0 0 0 0 1 0 255
0.956469 0.602129 1.926 0 0 0 0 2 0 255
0.919258 0.601813 1.904 0 0 0 22 30 32 255
0.950721 0.568094 2.005 0 0 0 24 31 33 255
0.948681 0.549856 2.053 0 0 0 49 46 63 255
0.954311 0.60199 1.915 0 0 0 0 1 0 255
0.99062 0.55788 1.981 0 0 0 1 0 7 255
0.99062 0.554467 1.981 0 0 0 0 4 8 255
0.954311 0.60529 1.915 0 0 0 0 0 0 255
0.953146 0.602129 1.926 0 0 0 0 6 2 255
0.947261 0.568094 2.005 0 0 0 30 37 39 255
0.945138 0.549856 2.053 0 0 0 50 50 50 255
0.949822 0.602129 1.926 0 0 0 0 7 3 255
0.948071 0.595247 1.936 0 0 0 0 4 8 255
0.943801 0.568094 2.005 0 0 0 31 38 40 255
0.97832 0.449551 1.97 0 0 0 10 9 17 255
0.97832 0.446156 1.97 0 0 0 1 9 13 255
0.946498 0.602129 1.926 0 0 0 1 9 13 255
0.94473 0.595247 1.936 0 0 0 1 10 7 255
0.940341 0.568094 2.005 0 0 0 36 42 45 255
0.978401 0.561184 2.005 0 0 0 16 15 22 255
0.976945 0.564707 1.981 0 0 0 1 9 13 255
0.943174 0.602129 1.926 0 0 0 1 9 13 255
0.941389 0.595247 1.936 0 0 0 6 16 13 255
0.93688 0.568094 2.005 0 0 0 38 44 53 255
0.980338 0.437592 1.947 0 0 0 17 15 30 255
0.980338 0.434237 1.947 0 0 0 6 15 19 255
0.938048 0.595247 1.936 0 0 0 15 14 21 255
1.03348 0.488281 2.156 0 0 0 33 45 80 255
0.976238 0.430163 1.959 0 0 0 9 9 9 255
0.939851 0.602129 1.926 0 0 0 12 12 12 255
0.93342 0.568094 2.005 0 0 0 42 47 57 255
0.976978 0.437592 1.947 0 0 0 6 18 5 255
0.976978 0.434237 1.947 0 0 0 6 16 13 255
0.936527 0.602129 1.926 0 0 0 13 13 13 255
0.985119 0.419 1.97 0 0 0 14 13 20 255
0.97492 0.429183 1.97 0 0 0 12 10 18 255
0.934707 0.595247 1.936 0 0 0 21 20 27 255
0.969853 0.571211 2.016 0 0 0 13 22 26 255
1.00012 0.487248 2.028 0 0 0 6 13 31 255
1.02976 0.488281 2.156 0 0 0 35 48 82 255
1.02604 0.488281 2.156 0 0 0 35 48 82 255
0.973618 0.434237 1.947 0 0 0 3 13 9 255
0.931366 0.595247 1.936 0 0 0 18 27 28 255
0.928025 0.595247 1.936 0 0 0 22 30 32 255
0.962227 0.581865 1.993 0 0 0 16 15 22 255
0.924685 0.595247 1.936 0 0 0 28 34 37 255
1.18654 0.379229 2.381 0 0 0 43 40 57 255
0.958788 0.581865 1.993 0 0 0 12 21 25 255
1.02421 0.493172 2.129 0 0 0 27 34 70 255
0.925829 0.608374 1.904 0 0 0 10 18 22 255
1.18243 0.379229 2.381 0 0 0 44 42 58 255
0.925367 0.617888 1.883 0 0 0 4 13 17 255
1.02054 0.493172 2.129 0 0 0 27 34 70 255
0.949596 0.581775 1.981 0 0 0 16 15 22 255
0.949596 0.578361 1.981 0 0 0 13 22 26 255
0.949596 0.574948 1.981 0 0 0 13 22 26 255
1.00712 0.54316 2.028 0 0 0 1 8 21 255
0.97832 0.439367 1.97 0 0 0 4 14 10 255
0.946178 0.581775 1.981 0 0 0 23 23 27 255
0.946178 0.578361 1.981 0 0 0 15 23 27 255
0.946178 0.574948 1.981 0 0 0 20 19 26 255
0.98172 0.449551 1.97 0 0 0 7 6 13 255
1.01687 0.493172 2.129 0 0 0 28 35 72 255
0.911991 0.574948 1.981 0 0 0 47 44 61 255
1.00362 0.54316 2.028 0 0 0 5 11 32 255
0.908573 0.574948 1.981 0 0 0 50 47 64 255
0.93934 0.581775 1.981 0 0 0 22 29 38 255
0.93934 0.574948 1.981 0 0 0 23 30 32 255
0.933381 0.608151 1.873 0 0 0 0 0 4 255
0.935922 0.581775 1.981 0 0 0 23 30 39 255
0.935922 0.574948 1.981 0 0 0 27 33 35 255
0.930149 0.608151 1.873 0 0 0 0 0 6 255
0.932503 0.578361 1.981 0 0 0 30 35 45 255
0.932503 0.574948 1.981 0 0 0 30 35 45 255
0.929085 0.578361 1.981 0 0 0 32 38 47 255
0.925666 0.581775 1.981 0 0 0 38 36 48 255
0.925666 0.578361 1.981 0 0 0 41 39 51 255
0.922247 0.578361 1.981 0 0 0 43 41 53 255
0.969764 0.612085 1.926 0 0 0 0 0 0 255
0.908573 0.595429 1.981 0 0 0 46 52 61 255
1.00464 0.54342 2.016 0 0 0 0 7 11 255
1.12284 0.449751 2.301 0 0 0 56 64 84 255
1.00545 0.512948 2.09 0 0 0 19 30 61 255
1.18275 0.410561 2.349 0 0 0 42 52 73 255
1.11887 0.449751 2.301 0 0 0 58 67 87 255
1.02349 0.512948 2.09 0 0 0 18 21 49 255
1.12681 0.421996 2.301 0 0 0 56 65 80 255
1.1787 0.410561 2.349 0 0 0 44 60 75 255
1.12341 0.450758 2.286 0 0 0 55 63 85 255
1.17464 0.410561 2.349 0 0 0 49 65 80 255
1.12284 0.418032 2.301 0 0 0 64 61 78 255
1.18654 0.375127 2.381 0 0 0 60 55 61 255
1.18243 0.387435 2.381 0 0 0 42 40 52 255
1.18243 0.383332 2.381 0 0 0 45 43 60 255
0.979424 0.444497 1.993 0 0 0 6 16 54 255
1.00694 0.568128 1.993 0 0 0 0 0 3 255
1.00812 0.539946 2.016 0 0 0 1 0 7 255
1.02985 0.49802 2.103 0 0 0 16 26 59 255
1.03257 0.508391 2.116 0 0 0 22 23 59 255
1.03257 0.504745 2.116 0 0 0 16 27 57 255
1.02892 0.508391 2.116 0 0 0 23 24 60 255
0.980364 0.475956 1.981 0 0 0 0 4 23 255
0.980364 0.472542 1.981 0 0 0 4 10 29 255
0.97832 0.442762 1.97 0 0 0 5 15 12 255
0.983769 0.442679 2.016 0 0 0 22 27 37 255
1.00701 0.508391 2.116 0 0 0 21 31 69 255
1.12284 0.421996 2.301 0 0 0 59 62 88 255
0.980338 0.427528 1.947 0 0 0 7 6 13 255
0.980364 0.455475 1.981 0 0 0 12 9 26 255
0.976978 0.427528 1.947 0 0 0 8 8 8 255
0.96669 0.568121 1.981 0 0 0 5 14 18 255
0.98172 0.459735 1.97 0 0 0 7 6 13 255
0.999702 0.508391 2.116 0 0 0 34 34 75 255
0.973618 0.430883 1.947 0 0 0 8 8 8 255
0.973618 0.427528 1.947 0 0 0 8 8 8 255
0.979619 0.463919 1.959 0 0 0 6 5 12 255
1.03156 0.507846 2.129 0 0 0 19 29 67 255
1.01988 0.512948 2.09 0 0 0 20 22 51 255
0.976945 0.414512 1.981 0 0 0 3 1 18 255
0.998281 0.539243 2.053 0 0 0 12 20 31 255
1.00906 0.512948 2.09 0 0 0 19 31 56 255
0.919859 0.588565 1.947 0 0 0 27 40 40 255
0.98411 0.535706 2.053 0 0 0 20 27 43 255
0.932401 0.601813 1.904 0 0 0 7 6 13 255
0.929115 0.601813 1.904 0 0 0 6 15 19 255
1.00954 0.53009 2.005 0 0 0 1 0 7 255
1.00608 0.526635 2.005 0 0 0 3 2 10 255
0.925829 0.601813 1.904 0 0 0 11 20 24 255
0.994039 0.506677 1.981 0 0 0 7 0 2 255
0.922544 0.601813 1.904 0 0 0 15 23 25 255
1.13172 0.451714 2.271 0 0 0 61 62 82 255
1.1278 0.451714 2.271 0 0 0 61 62 82 255
0.976978 0.461077 1.947 0 0 0 7 6 13 255
1.20297 0.354613 2.381 0 0 0 72 76 82 255
1.19886 0.354613 2.381 0 0 0 72 76 82 255
1.08583 0.465054 2.241 0 0 0 166 158 149 255
1.20708 0.354613 2.381 0 0 0 61 71 79 255
0.982863 0.475405 1.993 0 0 0 8 14 32 255
0.980364 0.462302 1.981 0 0 0 8 14 32 255
1.15064 0.425961 2.301 0 0 0 56 64 84 255
0.976978 0.440947 1.947 0 0 0 12 12 12 255
1.19489 0.36038 2.365 0 0 0 72 76 84 255
0.982999 0.423411 1.959 0 0 0 14 13 20 255
1.00464 0.526051 2.016 0 0 0 6 5 12 255
0.97832 0.45634 1.97 0 0 0 7 4 21 255
0.921264 0.60199 1.915 0 0 0 24 31 33 255
0.98029 0.557315 2.016 0 0 0 28 20 29 255
0.98029 0.553841 2.016 0 0 0 21 20 27 255
1.00694 0.574996 1.993 0 0 0 0 0 0 255
0.999161 0.55082 2.005 0 0 0 0 5 19 255
0.998281 0.532168 2.053 0 0 0 13 20 36 255
0.92981 0.595272 1.853 0 0 0 0 0 0 255
1.14664 0.420938 2.317 0 0 0 56 65 82 255
1.00956 0.539344 2.04 0 0 0 4 10 31 255
1.14265 0.420938 2.317 0 0 0 55 63 81 255
0.953235 0.539344 2.04 0 0 0 46 51 65 255
1.12341 0.44288 2.286 0 0 0 55 64 79 255
1.00604 0.539344 2.04 0 0 0 4 10 31 255
0.991195 0.532168 2.053 0 0 0 17 19 50 255
0.987653 0.532168 2.053 0 0 0 16 18 47 255
0.98411 0.532168 2.053 0 0 0 18 21 49 255
1.05741 0.475068 2.198 0 0 0 55 54 59 255
0.985119 0.476707 1.97 0 0 0 2 2 2 255
0.919859 0.59192 1.947 0 0 0 36 43 41 255
1.1704 0.392982 2.365 0 0 0 35 45 83 255
1.00812 0.532999 2.016 0 0 0 3 2 10 255
0.98172 0.476707 1.97 0 0 0 1 0 7 255
1.00954 0.54391 2.005 0 0 0 1 0 7 255
1.15054 0.411785 2.333 0 0 0 58 67 87 255
0.987201 0.55788 1.981 0 0 0 0 7 11 255
0.928616 0.614643 1.883 0 0 0 0 8 12 255
1.04204 0.481644 2.143 0 0 0 34 47 77 255
1.013 0.526635 2.005 0 0 0 0 0 0 255
1.17856 0.384831 2.365 0 0 0 43 41 53 255
0.951006 0.60529 1.915 0 0 0 0 0 0 255
0.926917 0.608151 1.873 0 0 0 5 3 11 255
1.1704 0.384831 2.365 0 0 0 36 41 51 255
0.978401 0.436809 2.005 0 0 0 17 17 17 255
0.980364 0.465715 1.981 0 0 0 8 14 32 255
0.98172 0.419 1.97 0 0 0 16 15 22 255
0.940018 0.588565 1.947 0 0 0 11 21 17 255
0.987201 0.49985 1.981 0 0 0 5 3 11 255
1.03156 0.504177 2.129 0 0 0 20 31 62 255
0.98172 0.466524 1.97 0 0 0 7 6 13 255
0.97832 0.466524 1.97 0 0 0 7 6 13 255
1.00604 0.514737 2.04 0 0 0 8 5 22 255
0.938541 0.560789 2.016 0 0 0 38 51 58 255
1.11212 0.45954 2.271 0 0 0 50 56 90 255
1.00252 0.518253 2.04 0 0 0 8 14 32 255
1.03622 0.497452 2.116 0 0 0 19 31 56 255
0.965126 0.550149 2.028 0 0 0 28 33 43 255
0.91541 0.574948 1.981 0 0 0 45 43 60 255
1.00701 0.501099 2.116 0 0 0 23 30 69 255
1.01481 0.489021 2.065 0 0 0 13 24 57 255
0.925367 0.614643 1.883 0 0 0 12 10 18 255
0.955937 0.557315 2.016 0 0 0 27 31 46 255
0.955937 0.553841 2.016 0 0 0 29 33 48 255
0.929085 0.574948 1.981 0 0 0 35 40 50 255
0.952457 0.557315 2.016 0 0 0 27 31 46 255
0.987419 0.516549 2.09 0 0 0 27 35 66 255
0.979424 0.437628 1.993 0 0 0 15 10 43 255
0.980205 0.520151 2.09 0 0 0 27 34 72 255
0.985335 0.517164 2.078 0 0 0 24 33 64 255
0.918829 0.578361 1.981 0 0 0 47 44 61 255
0.945499 0.557315 2.016 0 0 0 38 44 53 255
0.945499 0.553841 2.016 0 0 0 39 45 54 255
1.0824 0.465777 2.226 0 0 0 175 167 172 255
1.1868 0.402466 2.349 0 0 0 21 33 59 255
0.925666 0.574948 1.981 0 0 0 41 39 51 255
0.987201 0.568121 1.981 0 0 0 2 2 2 255
0.922247 0.574948 1.981 0 0 0 44 42 54 255
1.1082 0.455627 2.271 0 0 0 54 61 84 255
0.94202 0.557315 2.016 0 0 0 41 46 55 255
0.94202 0.553841 2.016 0 0 0 42 46 61 255
0.981749 0.517164 2.078 0 0 0 27 35 66 255
1.20708 0.371024 2.381 0 0 0 75 76 96 255
1.17856 0.397057 2.365 0 0 0 30 39 68 255
0.91541 0.578361 1.981 0 0 0 45 43 60 255
0.954181 0.561184 2.005 0 0 0 29 28 33 255
0.985119 0.486891 1.97 0 0 0 0 6 2 255
0.99196 0.539344 2.04 0 0 0 11 17 36 255
0.918829 0.574948 1.981 0 0 0 44 42 58 255
0.952457 0.553841 2.016 0 0 0 32 37 51 255
1.07856 0.465777 2.226 0 0 0 171 156 168 255
1.17448 0.397057 2.365 0 0 0 33 42 71 255
0.988439 0.539344 2.04 0 0 0 12 18 37 255
1.15103 0.435002 2.286 0 0 0 59 59 84 255
1.20708 0.407949 2.381 0 0 0 34 38 53 255
0.973527 0.574948 1.981 0 0 0 7 6 13 255
1.1704 0.397057 2.365 0 0 0 47 60 76 255
0.984919 0.539344 2.04 0 0 0 15 21 39 255
0.970108 0.574948 1.981 0 0 0 10 9 17 255
1.14708 0.435002 2.286 0 0 0 59 59 86 255
1.17464 0.402466 2.349 0 0 0 31 46 68 255
0.981399 0.539344 2.04 0 0 0 24 30 39 255
1.14314 0.435002 2.286 0 0 0 60 60 87 255
0.945138 0.553393 2.053 0 0 0 49 52 22 255
1.00694 0.578431 1.993 0 0 0 0 0 0 255
1.00694 0.571562 1.993 0 0 0 0 0 0 255
0.974358 0.539344 2.04 0 0 0 29 34 44 255
1.13919 0.435002 2.286 0 0 0 58 64 71 255
1.00608 0.52318 2.005 0 0 0 0 0 6 255
1.19489 0.376681 2.365 0 0 0 74 78 77 255
1.15464 0.412953 2.317 0 0 0 56 65 80 255
1.00701 0.497452 2.116 0 0 0 24 32 68 255
0.970991 0.531487 2.078 0 0 0 42 46 61 255
1.14664 0.412953 2.317 0 0 0 57 65 85 255
1.00335 0.501099 2.116 0 0 0 24 30 76 255
0.97832 0.435973 1.97 0 0 0 12 12 12 255
0.963271 0.574948 1.981 0 0 0 13 12 19 255
1.0035 0.516615 1.993 0 0 0 5 0 0 255
1.1245 0.449608 2.241 0 0 0 57 62 74 255
1.03987 0.493806 2.116 0 0 0 14 23 47 255
1.15497 0.431063 2.286 0 0 0 54 62 80 255
0.987248 0.449626 2.016 0 0 0 19 29 67 255
1.0212 0.499261 2.078 0 0 0 10 22 47 255
1.01267 0.512948 2.09 0 0 0 18 30 55 255
1.03891 0.504177 2.129 0 0 0 17 27 64 255
1.1787 0.37818 2.349 0 0 0 54 51 68 255
0.979619 0.423411 1.959 0 0 0 14 13 20 255
1.00182 0.52863 2.053 0 0 0 8 14 32 255
1.03524 0.507846 2.129 0 0 0 19 30 61 255
0.998281 0.52863 2.053 0 0 0 11 17 36 255
1.13078 0.421996 2.301 0 0 0 55 64 79 255
1.02789 0.504177 2.129 0 0 0 20 31 62 255
1.16632 0.405207 2.365 0 0 0 55 70 88 255
0.933381 0.604924 1.873 0 0 0 0 0 0 255
1.1313 0.427124 2.286 0 0 0 55 63 81 255
1.00694 0.485707 1.993 0 0 0 2 2 2 255
1.04944 0.496414 2.143 0 0 0 34 36 63 255
1.16248 0.402466 2.349 0 0 0 54 69 87 255
1.01066 0.493806 2.116 0 0 0 25 33 69 255
1.00701 0.493806 2.116 0 0 0 27 34 70 255
1.00701 0.49016 2.116 0 0 0 29 37 73 255
0.99062 0.49985 1.981 0 0 0 8 1 3 255
1.12837 0.445746 2.241 0 0 0 55 63 81 255
1.16653 0.402466 2.349 0 0 0 56 70 84 255
0.978163 0.517164 2.078 0 0 0 28 35 74 255
0.985321 0.443718 2.005 0 0 0 12 11 55 255
0.997457 0.561294 1.981 0 0 0 0 0 0 255
1.15843 0.410561 2.349 0 0 0 60 68 88 255
1.1245 0.445746 2.241 0 0 0 59 64 76 255
1.00335 0.493806 2.116 0 0 0 28 35 76 255
1.00335 0.49016 2.116 0 0 0 36 33 80 255
0.976238 0.426787 1.959 0 0 0 12 12 12 255
1.15437 0.410561 2.349 0 0 0 60 67 92 255
0.980364 0.571534 1.981 0 0 0 11 2 12 255
0.999702 0.493806 2.116 0 0 0 23 30 71 255
0.975985 0.564694 1.993 0 0 0 14 14 14 255
1.19081 0.348155 2.365 0 0 0 66 74 78 255
0.993124 0.459292 2.028 0 0 0 28 35 72 255
0.917959 0.59869 1.915 0 0 0 28 33 43 255
0.99062 0.564707 1.981 0 0 0 2 1 8 255
0.997457 0.564707 1.981 0 0 0 0 0 4 255
1.18672 0.356305 2.365 0 0 0 77 76 83 255
0.908573 0.578361 1.981 0 0 0 45 50 64 255
1.16264 0.420938 2.317 0 0 0 55 63 83 255
1.15864 0.420938 2.317 0 0 0 56 64 84 255
0.976945 0.571534 1.981 0 0 0 12 3 13 255
1.18264 0.356305 2.365 0 0 0 77 76 83 255
0.970837 0.539344 2.04 0 0 0 32 38 47 255
1.00185 0.512948 2.09 0 0 0 21 32 63 255
0.994039 0.571534 1.981 0 0 0 0 0 3 255
1.15464 0.420938 2.317 0 0 0 56 65 80 255
0.980364 0.414512 1.981 0 0 0 20 17 34 255
0.967317 0.539344 2.04 0 0 0 37 42 52 255
0.989862 0.53172 2.065 0 0 0 21 23 52 255
1.00954 0.526635 2.005 0 0 0 2 2 2 255
1.00906 0.516549 2.09 0 0 0 14 32 63 255
1.15064 0.424931 2.317 0 0 0 55 63 81 255
0.983783 0.568121 1.981 0 0 0 6 6 6 255
0.983783 0.564707 1.981 0 0 0 5 3 11 255
1.12284 0.441821 2.301 0 0 0 60 68 88 255
1.1868 0.418657 2.349 0 0 0 49 65 80 255
0.994039 0.561294 1.981 0 0 0 0 0 0 255
1.1868 0.414609 2.349 0 0 0 49 62 66 255
0.980364 0.564707 1.981 0 0 0 1 9 13 255
0.960276 0.539344 2.04 0 0 0 42 46 61 255
0.96669 0.574948 1.981 0 0 0 12 10 18 255
0.983783 0.49985 1.981 0 0 0 2 1 8 255
0.972126 0.550149 2.028 0 0 0 27 32 42 255
1.18275 0.418657 2.349 0 0 0 49 65 80 255
1.17059 0.402466 2.349 0 0 0 46 60 73 255
1.00545 0.516549 2.09 0 0 0 20 31 62 255
1.00006 0.516615 1.993 0 0 0 7 0 10 255
0.993426 0.53172 2.065 0 0 0 18 21 49 255
0.976945 0.574948 1.981 0 0 0 7 6 13 255
1.10478 0.460392 2.256 0 0 0 88 88 90 255
1.20708 0.387435 2.381 0 0 0 62 68 70 255
0.968626 0.550149 2.028 0 0 0 29 34 44 255
1.0035 0.547523 1.993 0 0 0 0 1 5 255
1.17872 0.423845 2.333 0 0 0 51 60 78 255
1.00006 0.547523 1.993 0 0 0 0 4 10 255
0.974941 0.426444 2.005 0 0 0 131 112 132 255
1.10088 0.460392 2.256 0 0 0 86 88 108 255
0.949714 0.539344 2.04 0 0 0 48 52 66 255
1.01066 0.497452 2.116 0 0 0 24 32 68 255
0.946194 0.539344 2.04 0 0 0 52 50 62 255
1.09699 0.460392 2.256 0 0 0 81 82 102 255
0.992241 0.505906 2.005 0 0 0 7 4 21 255
1.00182 0.539243 2.053 0 0 0 8 15 26 255
1.01171 0.512515 2.103 0 0 0 19 30 61 255
1.00604 0.504192 2.04 0 0 0 12 9 26 255
0.988519 0.419 1.97 0 0 0 14 13 20 255
0.991919 0.419 1.97 0 0 0 16 15 22 255
1.00694 0.516615 1.993 0 0 0 5 0 0 255
0.991195 0.539243 2.053 0 0 0 15 21 39 255
0.994738 0.539243 2.053 0 0 0 12 18 37 255
1.00335 0.497452 2.116 0 0 0 27 32 82 255
1.00327 0.520745 2.078 0 0 0 21 23 52 255
0.983783 0.486196 1.981 0 0 0 3 2 10 255
0.982863 0.564694 1.993 0 0 0 5 15 12 255
0.919258 0.614936 1.904 0 0 0 24 31 33 255
0.997457 0.506677 1.981 0 0 0 7 0 0 255
1.1868 0.410561 2.349 0 0 0 30 40 62 255
0.911991 0.578361 1.981 0 0 0 42 46 61 255
1.13956 0.436061 2.271 0 0 0 54 61 84 255
1.16224 0.409283 2.365 0 0 0 64 65 90 255
0.995701 0.55082 2.005 0 0 0 1 8 21 255
0.992241 0.55082 2.005 0 0 0 4 11 25 255
