ply
format ascii 1.0
element vertex 1027
property float x
property float y
property float z
property float normal_x
property float normal_y
property float normal_z
property uchar red
property uchar green
property uchar blue
property uchar alpha
end_header
-0.0192002 -0.181967 0.841 0 0 0 170 170 140 255
-0.0296388 -0.144198 0.849 0 0 0 7 0 0 255
0.0601261 -0.0967914 0.796 0 0 0 198 189 121 255
-0.0135542 -0.0741516 0.851 0 0 0 112 86 8 255
-0.0135542 -0.075618 0.851 0 0 0 109 86 14 255
0.0640857 -0.106125 0.794 0 0 0 145 131 8 255
-0.0118016 -0.111071 0.831 0 0 0 106 92 15 255
0.0600072 -0.0568314 0.813 0 0 0 175 141 0 255
-0.043211 -0.136897 0.887 0 0 0 89 79 0 255
-0.0757992 -0.170776 0.93 0 0 0 85 81 73 255
0.0370452 -0.109978 0.773 0 0 0 0 0 56 255
0.0640857 -0.107494 0.794 0 0 0 149 128 42 255
-0.00586096 -0.157141 0.803 0 0 0 57 55 0 255
-0.0752431 -0.0923033 0.964 0 0 0 113 99 18 255
-0.0746187 -0.103068 0.956 0 0 0 104 98 0 255
-0.0746187 -0.106363 0.956 0 0 0 102 92 0 255
-0.0746187 -0.109658 0.956 0 0 0 99 90 0 255
0.0614517 -0.148227 0.778 0 0 0 0 94 155 255
-0.0744626 -0.111072 0.954 0 0 0 99 84 0 255
-0.0744626 -0.11436 0.954 0 0 0 93 83 0 255
-0.0742284 -0.123832 0.951 0 0 0 94 87 3 255
-0.0739943 -0.126709 0.948 0 0 0 102 94 17 255
-0.0738382 -0.131332 0.946 0 0 0 98 98 46 255
-0.0738382 -0.132962 0.946 0 0 0 103 100 49 255
-0.073604 -0.134165 0.943 0 0 0 101 97 53 255
-0.0733699 -0.138598 0.94 0 0 0 99 95 48 255
-0.0733699 -0.140217 0.94 0 0 0 104 93 48 255
-0.0732137 -0.144768 0.938 0 0 0 101 91 42 255
-0.0732137 -0.146384 0.938 0 0 0 102 92 45 255
-0.0732137 -0.148 0.938 0 0 0 96 93 44 255
-0.0729796 -0.152361 0.935 0 0 0 98 94 45 255
-0.0729796 -0.153972 0.935 0 0 0 99 95 46 255
-0.0729796 -0.155583 0.935 0 0 0 102 91 51 255
-0.0728235 -0.156858 0.933 0 0 0 88 89 57 255
-0.0724332 -0.162413 0.928 0 0 0 6 7 0 255
-0.0724332 -0.164012 0.928 0 0 0 12 10 0 255
-0.0724332 -0.165611 0.928 0 0 0 3 0 0 255
-0.0724332 -0.16881 0.928 0 0 0 0 0 0 255
-0.0724332 -0.170409 0.928 0 0 0 0 0 0 255
-0.0721991 -0.171452 0.925 0 0 0 0 0 0 255
-0.0721991 -0.173046 0.925 0 0 0 22 22 0 255
-0.072043 -0.177443 0.923 0 0 0 33 33 6 255
-0.072043 -0.180624 0.923 0 0 0 7 8 0 255
-0.0718088 -0.183207 0.92 0 0 0 0 0 0 255
-0.0714185 -0.188518 0.915 0 0 0 72 64 14 255
-0.0714185 -0.190095 0.915 0 0 0 71 68 5 255
-0.0712624 -0.194399 0.913 0 0 0 69 63 13 255
-0.0712624 -0.197545 0.913 0 0 0 69 67 23 255
-0.0712624 -0.202265 0.913 0 0 0 77 72 58 255
-0.0661713 -0.18864 0.908 0 0 0 81 63 5 255
-0.0630374 -0.179253 0.908 0 0 0 5 5 5 255
-0.0630374 -0.180817 0.908 0 0 0 23 16 19 255
-0.00324337 -0.0400447 0.843 0 0 0 100 78 0 255
-0.0205042 -0.174913 0.835 0 0 0 82 101 185 255
0.00799651 -0.0685854 0.803 0 0 0 41 34 0 255
0.00799651 -0.0727365 0.803 0 0 0 73 72 9 255
0.0587525 -0.0926766 0.796 0 0 0 198 186 108 255
0.0587525 -0.0967914 0.796 0 0 0 199 189 54 255
0.0628735 -0.100906 0.796 0 0 0 168 146 31 255
0.0262369 -0.108084 0.769 0 0 0 114 130 173 255
-0.0421032 -0.102775 0.896 0 0 0 110 97 40 255
-0.0447417 -0.136897 0.887 0 0 0 92 78 0 255
0.052388 -0.11275 0.783 0 0 0 188 177 87 255
0.0625575 -0.104493 0.792 0 0 0 179 159 61 255
-0.01796 -0.0932146 0.851 0 0 0 32 24 0 255
-0.0536357 -0.138573 0.908 0 0 0 103 91 29 255
-0.077146 -0.0942568 0.967 0 0 0 116 101 22 255
-0.0769067 -0.0989477 0.964 0 0 0 124 109 0 255
-0.0767472 -0.1004 0.962 0 0 0 119 110 13 255
-0.0762685 -0.104716 0.956 0 0 0 122 112 0 255
-0.0762685 -0.109658 0.956 0 0 0 120 111 0 255
-0.0762685 -0.111305 0.956 0 0 0 117 103 10 255
-0.0762685 -0.1146 0.956 0 0 0 112 101 12 255
-0.0761089 -0.116004 0.954 0 0 0 108 99 4 255
-0.0761089 -0.119292 0.954 0 0 0 111 105 16 255
-0.0761089 -0.120935 0.954 0 0 0 110 98 13 255
-0.0761089 -0.122579 0.954 0 0 0 110 98 13 255
-0.0758696 -0.128749 0.951 0 0 0 98 97 33 255
-0.0756303 -0.131609 0.948 0 0 0 89 88 36 255
-0.0756303 -0.133243 0.948 0 0 0 92 89 37 255
-0.0754707 -0.134592 0.946 0 0 0 92 88 44 255
-0.0754707 -0.136222 0.946 0 0 0 91 87 40 255
-0.0752314 -0.13904 0.943 0 0 0 88 84 38 255
0.0176967 -0.0381446 0.803 0 0 0 23 32 29 255
-0.0752314 -0.140665 0.943 0 0 0 94 83 39 255
-0.074992 -0.141837 0.94 0 0 0 85 81 37 255
-0.074992 -0.143457 0.94 0 0 0 83 79 19 255
-0.0748325 -0.146384 0.938 0 0 0 91 80 34 255
-0.0748325 -0.148 0.938 0 0 0 86 83 34 255
-0.0748325 -0.152849 0.938 0 0 0 85 81 32 255
-0.0745931 -0.153972 0.935 0 0 0 86 83 34 255
-0.0745931 -0.155583 0.935 0 0 0 94 82 43 255
-0.0744336 -0.158465 0.933 0 0 0 79 88 46 255
-0.0744336 -0.160073 0.933 0 0 0 80 82 41 255
-0.0741942 -0.167571 0.93 0 0 0 67 63 21 255
-0.0740347 -0.172008 0.928 0 0 0 71 73 31 255
-0.0737953 -0.174639 0.925 0 0 0 75 80 48 255
-0.0737953 -0.176233 0.925 0 0 0 73 78 51 255
-0.0736358 -0.180624 0.923 0 0 0 71 72 37 255
-0.0736358 -0.182214 0.923 0 0 0 72 72 44 255
-0.0733964 -0.186378 0.92 0 0 0 39 37 24 255
-0.0732369 -0.187554 0.918 0 0 0 69 62 12 255
-0.0729975 -0.188518 0.915 0 0 0 72 64 14 255
-0.0729975 -0.193248 0.915 0 0 0 79 75 19 255
-0.072838 -0.194399 0.913 0 0 0 77 72 21 255
-0.072838 -0.197545 0.913 0 0 0 74 72 27 255
-0.072838 -0.202265 0.913 0 0 0 77 72 58 255
-0.0472636 -0.108606 0.906 0 0 0 94 77 1 255
-0.0105921 -0.0725144 0.849 0 0 0 106 86 0 255
0.0200094 -0.071106 0.785 0 0 0 79 90 75 255
0.0395077 -0.12531 0.769 0 0 0 0 22 84 255
0.0435325 -0.0801302 0.794 0 0 0 83 58 0 255
0.00785709 -0.104098 0.789 0 0 0 43 46 27 255
-0.00882596 -0.119637 0.821 0 0 0 31 24 0 255
-0.0788148 -0.0942568 0.967 0 0 0 121 101 0 255
-0.0788148 -0.0975893 0.967 0 0 0 124 113 25 255
-0.0788148 -0.0992556 0.967 0 0 0 127 113 15 255
-0.0781628 -0.103392 0.959 0 0 0 152 135 27 255
-0.0781628 -0.105044 0.959 0 0 0 154 138 7 255
-0.0779183 -0.10801 0.956 0 0 0 149 135 0 255
-0.0779183 -0.109658 0.956 0 0 0 150 136 0 255
-0.0779183 -0.111305 0.956 0 0 0 151 137 3 255
-0.0779183 -0.1146 0.956 0 0 0 151 137 3 255
-0.0777553 -0.120935 0.954 0 0 0 142 126 0 255
-0.0777553 -0.122579 0.954 0 0 0 136 125 0 255
-0.0777553 -0.124223 0.954 0 0 0 128 118 0 255
-0.0777553 -0.127511 0.954 0 0 0 128 119 93 255
-0.0775107 -0.128749 0.951 0 0 0 119 116 92 255
-0.0775107 -0.130387 0.951 0 0 0 115 111 96 255
-0.0775107 -0.132026 0.951 0 0 0 109 105 100 255
-0.0772662 -0.133243 0.948 0 0 0 106 102 96 255
-0.0771032 -0.136222 0.946 0 0 0 106 105 99 255
-0.0771032 -0.137852 0.946 0 0 0 104 102 98 255
-0.0766142 -0.143457 0.94 0 0 0 96 92 91 255
-0.0766142 -0.145077 0.94 0 0 0 96 93 87 255
-0.0766142 -0.146696 0.94 0 0 0 96 90 85 255
-0.0766142 -0.148316 0.94 0 0 0 92 88 82 255
-0.0766142 -0.149936 0.94 0 0 0 89 88 81 255
-0.0764512 -0.154466 0.938 0 0 0 91 89 69 255
-0.0764512 -0.156082 0.938 0 0 0 92 90 74 255
-0.0762067 -0.158805 0.935 0 0 0 94 92 79 255
-0.0760437 -0.163288 0.933 0 0 0 93 90 78 255
-0.0760437 -0.168111 0.933 0 0 0 87 85 72 255
-0.0756361 -0.172008 0.928 0 0 0 85 81 73 255
-0.0753916 -0.174639 0.925 0 0 0 84 80 74 255
-0.0753916 -0.176233 0.925 0 0 0 82 79 71 255
-0.0752286 -0.180624 0.923 0 0 0 81 79 66 255
-0.0752286 -0.185395 0.923 0 0 0 71 69 70 255
-0.0749841 -0.189548 0.92 0 0 0 66 67 62 255
-0.0745766 -0.194825 0.915 0 0 0 71 70 64 255
-0.0744136 -0.197545 0.913 0 0 0 74 72 68 255
-0.0744136 -0.199119 0.913 0 0 0 75 73 69 255
0.0183696 -0.0979906 0.773 0 0 0 103 109 98 255
-0.0744136 -0.200692 0.913 0 0 0 76 74 75 255
-0.0745766 -0.202708 0.915 0 0 0 74 71 63 255
0.0442806 -0.100608 0.783 0 0 0 113 107 59 255
-0.0272748 -0.100943 0.867 0 0 0 34 22 0 255
0.0531226 -0.0471407 0.815 0 0 0 182 155 0 255
-0.0532157 -0.0808609 0.928 0 0 0 87 63 0 255
-0.0516142 -0.0760637 0.928 0 0 0 98 77 20 255
0.0118813 -0.0954539 0.785 0 0 0 75 71 42 255
0.00245963 -0.0992729 0.805 0 0 0 110 97 40 255
-0.071366 -0.149138 0.935 0 0 0 102 91 47 255
0.0403297 -0.0927485 0.785 0 0 0 67 59 0 255
-0.0456464 -0.166707 0.875 0 0 0 34 19 0 255
-0.0804836 -0.0925905 0.967 0 0 0 115 98 0 255
-0.0804836 -0.0942568 0.967 0 0 0 119 99 0 255
-0.0807333 -0.0962207 0.97 0 0 0 120 103 13 255
-0.0807333 -0.0978921 0.97 0 0 0 125 114 26 255
-0.0804836 -0.0992556 0.967 0 0 0 130 116 19 255
-0.0804836 -0.100922 0.967 0 0 0 155 139 44 255
-0.0800674 -0.107031 0.962 0 0 0 186 171 42 255
-0.0798177 -0.111654 0.959 0 0 0 186 171 38 255
-0.0798177 -0.114959 0.959 0 0 0 186 171 38 255
-0.0794016 -0.124223 0.954 0 0 0 176 166 42 255
-0.0791519 -0.130387 0.951 0 0 0 163 159 144 255
-0.0789022 -0.134877 0.948 0 0 0 159 156 150 255
-0.0787357 -0.136222 0.946 0 0 0 161 160 153 255
0.0149252 -0.040912 0.803 0 0 0 26 30 20 255
-0.0784861 -0.143915 0.943 0 0 0 165 161 160 255
-0.0784861 -0.148789 0.943 0 0 0 164 160 155 255
-0.0784861 -0.153664 0.943 0 0 0 164 161 149 255
-0.0782364 -0.154795 0.94 0 0 0 162 160 140 255
-0.0782364 -0.156415 0.94 0 0 0 162 159 144 255
-0.0782364 -0.158035 0.94 0 0 0 160 158 145 255
-0.0780699 -0.159315 0.938 0 0 0 158 156 143 255
-0.0776538 -0.163288 0.933 0 0 0 158 156 143 255
-0.0776538 -0.164896 0.933 0 0 0 160 155 143 255
-0.0776538 -0.168111 0.933 0 0 0 159 157 144 255
-0.0776538 -0.171327 0.933 0 0 0 156 152 144 255
-0.0774041 -0.172378 0.93 0 0 0 153 150 142 255
-0.0772376 -0.173607 0.928 0 0 0 150 146 141 255
0.0344112 -0.042401 0.805 0 0 0 198 194 188 255
-0.0772376 -0.175206 0.928 0 0 0 150 146 141 255
0.0159454 -0.075164 0.785 0 0 0 70 69 0 255
-0.0769879 -0.177827 0.925 0 0 0 148 144 136 255
-0.0768214 -0.180624 0.923 0 0 0 145 143 130 255
-0.0768214 -0.182214 0.923 0 0 0 144 140 135 255
0.0159047 -0.084417 0.783 0 0 0 113 102 58 255
-0.0768214 -0.186985 0.923 0 0 0 136 136 138 255
-0.0768214 -0.188576 0.923 0 0 0 135 135 135 255
-0.0764053 -0.190718 0.918 0 0 0 135 135 135 255
-0.0764053 -0.1923 0.918 0 0 0 135 133 134 255
-0.0761556 -0.194825 0.915 0 0 0 134 133 127 255
-0.0761556 -0.196401 0.915 0 0 0 134 133 129 255
-0.0761556 -0.199555 0.915 0 0 0 134 133 129 255
0.0505566 -0.0360822 0.819 0 0 0 127 124 89 255
0.0601261 -0.100906 0.796 0 0 0 195 181 110 255
0.054598 -0.147845 0.776 0 0 0 83 125 192 255
-0.0230753 -0.0568364 0.878 0 0 0 111 91 16 255
-0.000321936 -0.0806468 0.813 0 0 0 80 69 0 255
-0.0707223 -0.112007 0.948 0 0 0 100 85 37 255
0.0278149 -0.0916852 0.776 0 0 0 112 124 163 255
0.0329578 -0.109694 0.771 0 0 0 133 149 201 255
-0.000321936 -0.0918541 0.813 0 0 0 100 91 0 255
0.037051 -0.0505347 0.802 0 0 0 185 200 192 255
0.0661979 -0.0865732 0.803 0 0 0 179 167 73 255
-0.0228388 -0.0727252 0.869 0 0 0 116 90 10 255
-0.0826621 -0.0965182 0.973 0 0 0 119 104 9 255
0.0678143 -0.138128 0.774 0 0 0 168 174 163 255
-0.0814727 -0.121569 0.959 0 0 0 192 174 30 255
-0.0812178 -0.124484 0.956 0 0 0 189 175 21 255
-0.0812178 -0.126131 0.956 0 0 0 181 168 88 255
-0.0810479 -0.132442 0.954 0 0 0 164 159 147 255
-0.0810479 -0.134086 0.954 0 0 0 163 159 151 255
-0.0805382 -0.138144 0.948 0 0 0 163 162 158 255
-0.0803683 -0.139482 0.946 0 0 0 161 158 161 255
-0.0803683 -0.141112 0.946 0 0 0 163 163 163 255
-0.0803683 -0.142742 0.946 0 0 0 167 166 159 255
-0.0801134 -0.147164 0.943 0 0 0 169 168 160 255
-0.0801134 -0.148789 0.943 0 0 0 172 172 156 255
-0.0801134 -0.153664 0.943 0 0 0 172 170 164 255
-0.0798585 -0.154795 0.94 0 0 0 170 171 166 255
-0.0798585 -0.156415 0.94 0 0 0 174 170 169 255
-0.0796886 -0.159315 0.938 0 0 0 174 172 168 255
-0.0796886 -0.160931 0.938 0 0 0 174 172 168 255
-0.0794338 -0.163638 0.935 0 0 0 173 172 161 255
-0.0794338 -0.168472 0.935 0 0 0 175 175 171 255
-0.0794338 -0.170083 0.935 0 0 0 176 175 171 255
-0.0792638 -0.172934 0.933 0 0 0 174 172 170 255
-0.0792638 -0.174542 0.933 0 0 0 171 171 171 255
-0.0788391 -0.176805 0.928 0 0 0 172 168 165 255
-0.0785842 -0.179421 0.925 0 0 0 169 169 169 255
-0.0784143 -0.183805 0.923 0 0 0 166 164 160 255
0.0145535 -0.084417 0.783 0 0 0 116 101 15 255
-0.0784143 -0.186985 0.923 0 0 0 165 163 157 255
-0.0784143 -0.188576 0.923 0 0 0 162 163 158 255
-0.0781594 -0.192719 0.92 0 0 0 158 156 152 255
-0.0779895 -0.193882 0.918 0 0 0 158 156 152 255
-0.0777346 -0.196401 0.915 0 0 0 156 155 151 255
-0.0596215 -0.117639 0.928 0 0 0 80 57 0 255
-0.0777346 -0.197978 0.915 0 0 0 158 155 156 255
0.0338555 -0.0662812 0.792 0 0 0 5 51 122 255
-0.0777346 -0.199555 0.915 0 0 0 155 154 157 255
0.00949909 -0.0400205 0.813 0 0 0 104 85 0 255
-0.0523555 -0.120458 0.913 0 0 0 83 55 0 255
0.0491432 -0.0346709 0.819 0 0 0 119 116 92 255
0.0491432 -0.0360822 0.819 0 0 0 113 122 98 255
-0.00320489 -0.0668417 0.833 0 0 0 107 86 0 255
0.0687619 -0.0542954 0.817 0 0 0 214 191 49 255
0.0222557 -0.109409 0.769 0 0 0 21 51 100 255
0.0446994 -0.136879 0.767 0 0 0 55 82 128 255
0.0316273 -0.109694 0.771 0 0 0 76 92 144 255
-0.0489349 -0.111975 0.908 0 0 0 98 77 11 255
0.0674234 -0.127918 0.785 0 0 0 141 141 128 255
0.0648121 -0.0865732 0.803 0 0 0 184 168 69 255
0.0335563 -0.0819273 0.785 0 0 0 28 39 81 255
-0.0712624 -0.195972 0.913 0 0 0 66 64 19 255
-0.0833877 -0.123607 0.962 0 0 0 181 166 21 255
-0.0828676 -0.124484 0.956 0 0 0 177 164 9 255
-0.0828676 -0.126131 0.956 0 0 0 175 163 83 255
-0.0331445 -0.139302 0.864 0 0 0 64 43 0 255
-0.0824342 -0.138581 0.951 0 0 0 156 155 151 255
-0.0820008 -0.144372 0.946 0 0 0 159 160 155 255
-0.0820008 -0.146003 0.946 0 0 0 162 160 161 255
-0.0817407 -0.147164 0.943 0 0 0 162 161 153 255
-0.0817407 -0.152039 0.943 0 0 0 165 165 149 255
-0.0817407 -0.153664 0.943 0 0 0 165 163 157 255
-0.0817407 -0.158539 0.943 0 0 0 168 166 162 255
-0.0813073 -0.16578 0.938 0 0 0 169 168 162 255
-0.0810473 -0.173305 0.935 0 0 0 170 168 167 255
-0.0808739 -0.177758 0.933 0 0 0 174 170 167 255
-0.0801805 -0.184203 0.925 0 0 0 172 170 166 255
-0.0801805 -0.185797 0.925 0 0 0 173 170 164 255
-0.0801805 -0.187391 0.925 0 0 0 172 170 164 255
-0.0800071 -0.188576 0.923 0 0 0 171 172 167 255
-0.0797471 -0.195889 0.92 0 0 0 172 170 164 255
-0.0629598 -0.121098 0.93 0 0 0 81 58 0 255
-0.000321144 -0.100013 0.811 0 0 0 106 90 4 255
0.0136069 -0.0313818 0.807 0 0 0 26 29 9 255
-0.0546399 -0.106102 0.925 0 0 0 83 64 0 255
0.0397197 -0.0614367 0.8 0 0 0 169 142 69 255
-0.0559322 -0.119796 0.92 0 0 0 75 54 0 255
0.0550905 -0.116798 0.783 0 0 0 155 142 37 255
-0.0817768 -0.187391 0.925 0 0 0 171 166 166 255
-0.0817768 -0.188984 0.925 0 0 0 172 168 165 255
-0.0817768 -0.190578 0.925 0 0 0 172 168 165 255
-0.0817768 -0.192172 0.925 0 0 0 169 167 166 255
0.0361732 -0.084417 0.783 0 0 0 0 40 113 255
0.0369494 -0.116337 0.771 0 0 0 0 7 51 255
0.0369494 -0.117665 0.771 0 0 0 0 13 48 255
0.00925373 -0.086752 0.792 0 0 0 6 7 0 255
0.0104059 -0.129125 0.776 0 0 0 98 88 35 255
0.00914857 -0.119496 0.783 0 0 0 113 101 60 255
-0.00616751 -0.0459639 0.845 0 0 0 98 76 0 255
-0.0805382 -0.13651 0.948 0 0 0 164 160 155 255
0.0518841 -0.0871901 0.796 0 0 0 184 163 56 255
0.0312171 -0.127941 0.761 0 0 0 147 163 176 255
-0.0713191 -0.0981265 0.956 0 0 0 104 92 28 255
0.0527895 -0.104098 0.789 0 0 0 184 164 50 255
-0.0136657 -0.0584986 0.858 0 0 0 97 76 0 255
0.0505105 -0.0871901 0.796 0 0 0 195 177 0 255
0.0588926 -0.0514798 0.817 0 0 0 186 163 50 255
-0.0744626 -0.116004 0.954 0 0 0 94 85 0 255
0.0273131 -0.121544 0.762 0 0 0 149 195 255 255
-0.00602154 -0.0974746 0.825 0 0 0 103 90 0 255
0.0547387 -0.126777 0.778 0 0 0 165 150 73 255
0.0299038 -0.127941 0.761 0 0 0 156 163 190 255
0.0159454 -0.0765166 0.785 0 0 0 77 77 4 255
-0.0361187 -0.0691931 0.901 0 0 0 100 77 0 255
-0.0407405 -0.157713 0.867 0 0 0 20 14 7 255
0.071056 -0.0580891 0.811 0 0 0 207 186 29 255
-0.0401496 -0.123141 0.887 0 0 0 101 88 15 255
0.0263052 -0.100394 0.771 0 0 0 128 144 170 255
-0.0471071 -0.116026 0.903 0 0 0 98 91 9 255
0.0425456 -0.114417 0.776 0 0 0 123 109 96 255
0.0187736 -0.0606687 0.79 0 0 0 0 11 3 255
0.0136069 -0.0299912 0.807 0 0 0 30 27 3 255
0.0703436 -0.0516058 0.819 0 0 0 208 191 13 255
0.0294171 -0.0776709 0.783 0 0 0 176 176 165 255
-0.00454209 -0.111741 0.815 0 0 0 85 72 38 255
-0.00454209 -0.113145 0.815 0 0 0 93 71 22 255
0.00774755 -0.134821 0.778 0 0 0 50 52 1 255
-0.0665254 -0.124971 0.935 0 0 0 71 46 18 255
0.0415627 -0.0412176 0.809 0 0 0 130 141 115 255
-0.00605073 -0.0879479 0.829 0 0 0 52 44 0 255
0.0427649 -0.10291 0.78 0 0 0 89 74 0 255
0.00109968 -0.0635102 0.827 0 0 0 113 91 0 255
0.0580455 -0.0363465 0.825 0 0 0 187 163 0 255
-0.0102428 -0.122466 0.821 0 0 0 33 21 0 255
-0.0441364 -0.157661 0.875 0 0 0 34 21 0 255
-0.0205533 -0.134949 0.837 0 0 0 33 11 9 255
-0.0121282 -0.0626405 0.854 0 0 0 104 79 0 255
0.050385 -0.135286 0.773 0 0 0 173 161 65 255
0.00672601 -0.0458486 0.817 0 0 0 89 77 0 255
-0.00865396 -0.143661 0.805 0 0 0 80 72 0 255
-0.00462012 -0.082234 0.829 0 0 0 40 31 0 255
-0.0746187 -0.10801 0.956 0 0 0 100 90 0 255
0.00642141 -0.139199 0.78 0 0 0 45 36 25 255
-0.0454479 -0.115769 0.901 0 0 0 104 97 15 255
-0.0324156 -0.16536 0.845 0 0 0 81 61 13 255
-0.0442878 -0.153663 0.878 0 0 0 42 24 0 255
0.0280658 -0.0776709 0.783 0 0 0 161 179 239 255
0.0668574 -0.0622814 0.811 0 0 0 195 176 39 255
0.0668574 -0.0636789 0.811 0 0 0 188 169 35 255
-0.0164139 -0.101533 0.847 0 0 0 85 69 13 255
-0.0294347 -0.0620042 0.887 0 0 0 98 77 0 255
-0.0476954 -0.193012 0.885 0 0 0 109 137 189 255
0.0301396 -0.11309 0.767 0 0 0 173 182 255 255
0.0301396 -0.114411 0.767 0 0 0 165 185 255 255
0.0158438 -0.0894697 0.78 0 0 0 111 98 41 255
0.00925373 -0.0881167 0.792 0 0 0 0 0 0 255
-0.0148463 -0.109509 0.841 0 0 0 95 81 0 255
-0.0102677 -0.11851 0.823 0 0 0 30 23 0 255
-0.0308841 -0.16061 0.843 0 0 0 92 71 7 255
-0.0308841 -0.162063 0.843 0 0 0 88 70 12 255
-0.0131082 -0.135528 0.823 0 0 0 41 25 12 255
-0.00593395 -0.125476 0.813 0 0 0 45 36 0 255
0.00245352 -0.101794 0.803 0 0 0 105 97 22 255
0.0333425 -0.0908137 0.78 0 0 0 148 152 167 255
-0.0460532 -0.0858468 0.913 0 0 0 90 67 0 255
0.01913 -0.0285298 0.805 0 0 0 20 58 86 255
-0.053045 -0.160258 0.898 0 0 0 18 22 12 255
0.065135 -0.0814422 0.807 0 0 0 158 151 53 255
-0.0198851 -0.0623866 0.871 0 0 0 105 84 0 255
-0.0798585 -0.158035 0.94 0 0 0 174 172 168 255
-0.00762574 -0.0532441 0.845 0 0 0 105 84 0 255
0.0157625 -0.0943595 0.776 0 0 0 30 48 0 255
0.0177408 -0.0285298 0.805 0 0 0 36 36 0 255
0.0653221 -0.0335845 0.827 0 0 0 175 157 29 255
0.0612592 -0.0664738 0.811 0 0 0 186 166 0 255
0.0522752 -0.0740278 0.802 0 0 0 186 160 0 255
0.0116694 -0.141579 0.771 0 0 0 79 55 0 255
0.0637423 -0.0814422 0.807 0 0 0 178 171 73 255
0.0343773 -0.109978 0.773 0 0 0 138 135 196 255
-0.0371718 -0.0958451 0.889 0 0 0 69 64 0 255
-0.021069 -0.0939813 0.858 0 0 0 34 27 0 255
-0.0309654 -0.07576 0.887 0 0 0 101 81 0 255
-0.00733696 -0.124075 0.813 0 0 0 29 29 0 255
0.0274923 -0.11309 0.767 0 0 0 0 46 152 255
0.010473 -0.105734 0.781 0 0 0 18 4 0 255
0.0508412 -0.149952 0.78 0 0 0 121 130 200 255
-0.0206516 -0.181967 0.841 0 0 0 170 170 140 255
0.0579048 -0.0376765 0.823 0 0 0 187 169 37 255
-0.0553243 -0.146719 0.91 0 0 0 70 67 15 255
0.0707056 -0.0856139 0.807 0 0 0 198 187 31 255
-0.0306512 -0.0976849 0.878 0 0 0 36 29 0 255
-0.0610251 -0.125229 0.925 0 0 0 82 77 24 255
-0.0499457 -0.140142 0.898 0 0 0 94 80 24 255
0.00949909 -0.0372187 0.813 0 0 0 107 87 0 255
-0.043552 -0.124113 0.894 0 0 0 107 100 30 255
0.0578834 -0.0755038 0.803 0 0 0 187 175 68 255
0.0578834 -0.0768875 0.803 0 0 0 181 163 21 255
0.0587525 -0.098163 0.796 0 0 0 205 186 49 255
-0.0323129 -0.0874914 0.882 0 0 0 102 82 0 255
-0.0414454 -0.140684 0.882 0 0 0 66 49 0 255
-0.01183 -0.108467 0.833 0 0 0 99 85 0 255
0.0616097 -0.132479 0.78 0 0 0 171 164 55 255
0.0469831 -0.101957 0.783 0 0 0 173 159 66 255
0.0299431 -0.146491 0.762 0 0 0 145 146 186 255
-0.0426264 -0.15163 0.875 0 0 0 35 28 0 255
-0.0469409 -0.179453 0.871 0 0 0 65 55 15 255
0.0331861 -0.0328536 0.809 0 0 0 121 129 92 255
0.0147208 -0.0635518 0.792 0 0 0 36 26 0 255
0.0169915 -0.113679 0.771 0 0 0 93 103 70 255
0.0233375 -0.124007 0.761 0 0 0 0 63 153 255
-0.0478896 -0.0799896 0.918 0 0 0 86 51 0 255
0.00783717 -0.10519 0.787 0 0 0 36 35 12 255
0.0314222 -0.120862 0.766 0 0 0 101 121 162 255
-0.0583327 -0.0941581 0.933 0 0 0 88 68 0 255
-0.0168014 -0.0546304 0.867 0 0 0 100 80 19 255
0.0400673 -0.0438969 0.807 0 0 0 153 149 116 255
-0.011546 -0.152093 0.813 0 0 0 42 40 20 255
-0.0405056 -0.180569 0.862 0 0 0 67 59 0 255
-0.025511 -0.11468 0.858 0 0 0 91 76 0 255
0.0168372 -0.144243 0.764 0 0 0 94 115 194 255
-0.00177586 -0.0455287 0.837 0 0 0 76 53 0 255
-0.0463054 -0.0752441 0.918 0 0 0 121 104 16 255
-0.0349161 -0.128424 0.871 0 0 0 108 89 0 255
-0.0193372 -0.119047 0.847 0 0 0 95 74 0 255
-0.0761556 -0.197978 0.915 0 0 0 134 133 129 255
0.00642964 -0.131303 0.781 0 0 0 50 48 21 255
-0.0468463 -0.123121 0.898 0 0 0 107 96 22 255
0.00647904 -0.114683 0.787 0 0 0 25 23 0 255
0.0487047 -0.0945807 0.789 0 0 0 181 161 36 255
0.0103791 -0.135461 0.774 0 0 0 27 33 35 255
-0.00865396 -0.140887 0.805 0 0 0 44 15 0 255
0.0386746 -0.0438969 0.807 0 0 0 188 184 151 255
0.0375245 -0.091163 0.783 0 0 0 0 0 37 255
-0.0225497 -0.0998951 0.858 0 0 0 65 56 39 255
-0.0507499 -0.196062 0.885 0 0 0 137 157 202 255
0.0306897 -0.0828556 0.781 0 0 0 191 182 165 255
-0.0714185 -0.191671 0.915 0 0 0 70 67 2 255
-0.0104923 -0.0819752 0.841 0 0 0 68 64 2 255
0.0193977 -0.124007 0.761 0 0 0 95 97 69 255
-0.0374434 -0.181632 0.86 0 0 0 109 109 136 255
0.0213097 -0.0763217 0.783 0 0 0 46 94 153 255
0.0510816 -0.0645949 0.805 0 0 0 177 152 38 255
-0.0461541 -0.0765749 0.915 0 0 0 112 93 4 255
-0.00168463 -0.14717 0.794 0 0 0 64 54 44 255
0.0244721 -0.0406572 0.798 0 0 0 37 68 144 255
0.0374286 -0.0922759 0.781 0 0 0 0 0 0 255
-0.0329143 -0.150162 0.858 0 0 0 76 54 0 255
-0.0367119 -0.123404 0.878 0 0 0 101 81 0 255
-0.0418683 -0.120626 0.891 0 0 0 108 97 25 255
0.0360672 -0.0301399 0.811 0 0 0 83 87 58 255
0.0473431 -0.0945807 0.789 0 0 0 169 154 61 255
0.0691285 -0.119053 0.789 0 0 0 178 186 177 255
-0.0454378 -0.186957 0.871 0 0 0 74 94 126 255
0.0584644 -0.147464 0.774 0 0 0 28 101 183 255
0.0668574 -0.0678713 0.811 0 0 0 192 172 58 255
0.0279941 -0.0828556 0.781 0 0 0 187 187 212 255
0.00904342 -0.14213 0.774 0 0 0 77 59 2 255
0.0564273 -0.0809376 0.802 0 0 0 206 177 57 255
-0.0418957 -0.175705 0.86 0 0 0 61 48 11 255
-0.0243944 -0.0803968 0.871 0 0 0 88 70 0 255
0.054598 -0.130463 0.776 0 0 0 154 142 58 255
-0.0293683 -0.0725392 0.885 0 0 0 105 77 0 255
0.0266464 -0.0828556 0.781 0 0 0 141 142 167 255
0.0133034 -0.0741874 0.789 0 0 0 51 53 2 255
0.0133034 -0.0782661 0.789 0 0 0 0 0 0 255
-0.00755355 -0.0758162 0.837 0 0 0 88 70 12 255
0.0550433 -0.0767917 0.802 0 0 0 177 164 9 255
0.0558644 -0.0965482 0.794 0 0 0 165 156 31 255
0.0558644 -0.0979164 0.794 0 0 0 170 158 9 255
-0.0683576 -0.128605 0.938 0 0 0 94 85 11 255
-0.0683576 -0.130221 0.938 0 0 0 102 89 28 255
0.0346677 -0.0301399 0.811 0 0 0 113 105 122 255
0.0161282 -0.0609759 0.794 0 0 0 18 13 0 255
0.0532588 -0.130463 0.776 0 0 0 172 161 76 255
0.0640583 -0.0678713 0.811 0 0 0 153 131 0 255
0.0353879 -0.14594 0.766 0 0 0 141 150 204 255
0.00772763 -0.145171 0.776 0 0 0 85 76 9 255
0.0677669 -0.119053 0.789 0 0 0 135 143 134 255
-0.0443315 -0.0902689 0.91 0 0 0 102 83 0 255
-0.0451957 -0.122846 0.896 0 0 0 107 96 22 255
0.0415782 -0.0965599 0.783 0 0 0 172 155 6 255
-0.0234422 -0.143602 0.837 0 0 0 68 48 0 255
0.0664053 -0.119053 0.789 0 0 0 133 127 70 255
0.046383 -0.14461 0.773 0 0 0 110 140 196 255
0.0170356 -0.109978 0.773 0 0 0 97 107 72 255
0.0483032 -0.0604335 0.805 0 0 0 179 140 1 255
0.039968 -0.0465623 0.805 0 0 0 175 167 131 255
-0.00444735 -0.149287 0.798 0 0 0 55 31 0 255
0.0209287 -0.108084 0.769 0 0 0 56 84 138 255
0.0246507 -0.125318 0.761 0 0 0 0 58 153 255
-0.0765078 -0.103392 0.959 0 0 0 121 115 0 255
-0.0458029 -0.16274 0.878 0 0 0 44 38 4 255
0.0441356 -0.0576593 0.805 0 0 0 197 177 115 255
-0.0678875 -0.198464 0.91 0 0 0 79 61 21 255
0.0196016 -0.108084 0.769 0 0 0 94 100 66 255
-0.0117732 -0.112232 0.829 0 0 0 106 87 9 255
-0.0340342 -0.176383 0.849 0 0 0 70 62 0 255
0.0219084 -0.129877 0.757 0 0 0 35 54 79 255
-0.0658139 -0.147543 0.925 0 0 0 96 93 46 255
-0.0597716 -0.16793 0.906 0 0 0 0 0 6 255
0.00674248 -0.0389046 0.819 0 0 0 87 78 0 255
0.00674248 -0.0403159 0.819 0 0 0 83 76 0 255
0.0208742 -0.111768 0.767 0 0 0 51 82 126 255
0.001105 -0.0509301 0.831 0 0 0 86 70 0 255
-0.0603196 -0.194321 0.891 0 0 0 74 54 6 255
0.0509064 -0.115154 0.781 0 0 0 158 147 35 255
0.0240121 -0.0763217 0.783 0 0 0 0 65 140 255
0.00520549 -0.101413 0.8 0 0 0 63 64 57 255
-0.0375304 -0.150862 0.862 0 0 0 35 29 0 255
0.0567301 -0.113326 0.787 0 0 0 178 163 72 255
-0.0393349 -0.152087 0.869 0 0 0 40 33 0 255
-0.0333363 -0.129626 0.869 0 0 0 98 83 0 255
0.0450158 -0.0762172 0.796 0 0 0 144 134 53 255
0.0644086 -0.0929094 0.798 0 0 0 183 162 51 255
0.00244435 -0.105549 0.8 0 0 0 111 95 25 255
-0.00895497 -0.0941137 0.833 0 0 0 76 73 0 255
0.0443549 -0.0440057 0.809 0 0 0 82 94 86 255
0.00107841 -0.0902306 0.811 0 0 0 104 90 22 255
0.0553864 -0.0633648 0.807 0 0 0 165 124 0 255
-0.00893346 -0.0996154 0.831 0 0 0 101 81 0 255
0.00243824 -0.113535 0.798 0 0 0 104 89 46 255
0.00507535 -0.144575 0.78 0 0 0 81 64 0 255
0.0434228 -0.0826578 0.792 0 0 0 114 74 0 255
0.0434228 -0.0840226 0.792 0 0 0 87 72 0 255
-0.0725873 -0.117278 0.951 0 0 0 102 87 42 255
-0.0725873 -0.118916 0.951 0 0 0 99 89 36 255
-0.00307023 -0.141036 0.798 0 0 0 68 46 3 255
-0.0665357 -0.178667 0.913 0 0 0 11 5 0 255
-0.0665357 -0.18024 0.913 0 0 0 13 7 0 255
-0.0665357 -0.181813 0.913 0 0 0 19 4 0 255
0.00532912 -0.0445496 0.819 0 0 0 92 78 0 255
0.0368535 -0.12531 0.769 0 0 0 0 0 44 255
-0.0181499 -0.0764177 0.86 0 0 0 104 87 0 255
-0.00751745 -0.0883722 0.833 0 0 0 49 26 0 255
0.0187736 -0.0579462 0.79 0 0 0 0 23 27 255
-0.029569 -0.152616 0.847 0 0 0 41 29 0 255
-0.0523555 -0.129897 0.913 0 0 0 106 93 31 255
-0.029569 -0.154075 0.847 0 0 0 56 34 0 255
-0.051266 -0.158003 0.894 0 0 0 5 6 0 255
0.039968 -0.0479495 0.805 0 0 0 173 165 127 255
-0.000331439 -0.0368752 0.837 0 0 0 102 81 0 255
-0.000331439 -0.041202 0.837 0 0 0 98 83 0 255
0.0607453 -0.0405128 0.823 0 0 0 198 180 65 255
-0.0742284 -0.118916 0.951 0 0 0 92 86 0 255
-0.0696694 -0.0931846 0.956 0 0 0 102 95 27 255
-0.000314412 -0.141698 0.794 0 0 0 57 52 13 255
0.0286281 -0.121544 0.762 0 0 0 178 197 221 255
-0.0131082 -0.129855 0.823 0 0 0 42 20 12 255
-0.0694579 -0.196896 0.91 0 0 0 74 65 32 255
-0.0262052 -0.174494 0.833 0 0 0 92 111 187 255
-0.0514474 -0.0805995 0.925 0 0 0 93 52 0 255
0.00790688 -0.0910756 0.794 0 0 0 78 65 3 255
0.00790688 -0.0951801 0.794 0 0 0 109 99 21 255
0.0549498 -0.121883 0.781 0 0 0 196 176 90 255
0.0593251 -0.0405128 0.823 0 0 0 199 181 67 255
-0.0373809 -0.0886817 0.894 0 0 0 95 75 0 255
0.0694847 -0.081644 0.809 0 0 0 202 188 34 255
-0.0310352 -0.0636759 0.889 0 0 0 103 78 0 255
0.0286752 -0.0421376 0.8 0 0 0 78 95 105 255
-0.0031972 -0.0681131 0.831 0 0 0 104 87 0 255
0.00529008 -0.0582323 0.813 0 0 0 103 93 0 255
-0.0306512 -0.0946591 0.878 0 0 0 32 25 0 255
0.0183933 -0.0941163 0.774 0 0 0 110 118 97 255
0.0367098 -0.131421 0.766 0 0 0 0 23 140 255
-0.0482548 -0.0758178 0.925 0 0 0 106 88 1 255
-0.0403307 -0.106808 0.891 0 0 0 111 96 19 255
-0.0380964 -0.135045 0.875 0 0 0 31 22 11 255
0.0235828 -0.108084 0.769 0 0 0 0 60 155 255
0.0626329 -0.146508 0.776 0 0 0 136 156 186 255
-0.043552 -0.121032 0.894 0 0 0 108 97 25 255
0.068778 -0.12927 0.785 0 0 0 182 188 177 255
0.0193977 -0.125318 0.761 0 0 0 93 92 60 255
0.0616543 -0.0887843 0.798 0 0 0 158 152 47 255
-0.0219452 -0.174913 0.835 0 0 0 84 104 193 255
-0.0431136 -0.138113 0.885 0 0 0 85 73 0 255
0.0207926 -0.117913 0.764 0 0 0 60 84 117 255
0.0437518 -0.0736586 0.798 0 0 0 56 27 0 255
-0.0390108 -0.0888801 0.896 0 0 0 90 75 12 255
0.0259981 -0.121544 0.762 0 0 0 53 99 166 255
0.0199584 -0.0763217 0.783 0 0 0 101 112 86 255
0.0573788 -0.0899334 0.796 0 0 0 193 178 90 255
-0.0183398 -0.053259 0.869 0 0 0 116 91 6 255
-0.0530437 -0.0821934 0.925 0 0 0 81 49 5 255
-0.0435816 -0.178011 0.864 0 0 0 75 53 22 255
0.0358498 -0.101045 0.776 0 0 0 0 0 33 255
0.0651641 -0.0391897 0.825 0 0 0 189 171 71 255
-0.0471071 -0.11447 0.903 0 0 0 97 84 7 255
-0.0445751 -0.0702682 0.915 0 0 0 90 69 0 255
0.0594168 -0.0756919 0.805 0 0 0 171 159 51 255
0.0577641 -0.041829 0.821 0 0 0 194 176 46 255
0.0403297 -0.0913959 0.785 0 0 0 80 62 4 255
0.0106205 -0.0731048 0.792 0 0 0 102 89 0 255
0.0106205 -0.0744695 0.792 0 0 0 116 106 71 255
0.00108107 -0.0820477 0.813 0 0 0 85 79 31 255
0.0331715 -0.101045 0.776 0 0 0 130 162 204 255
-0.0513807 -0.150637 0.896 0 0 0 29 26 2 255
0.0194741 -0.117913 0.764 0 0 0 89 88 77 255
-0.0685034 -0.12564 0.94 0 0 0 75 50 22 255
0.0563473 -0.041829 0.821 0 0 0 192 175 44 255
0.035667 -0.0519166 0.802 0 0 0 142 146 152 255
-0.0323389 -0.166421 0.843 0 0 0 86 69 32 255
-0.0323389 -0.170779 0.843 0 0 0 89 69 10 255
-0.0323389 -0.172231 0.843 0 0 0 85 70 9 255
0.0633593 -0.122507 0.785 0 0 0 176 164 82 255
-0.0389275 -0.181632 0.86 0 0 0 82 82 109 255
-0.0132038 -0.125088 0.829 0 0 0 43 30 0 255
0.0708808 -0.08025 0.809 0 0 0 201 185 29 255
-0.0633845 -0.167654 0.913 0 0 0 21 24 5 255
0.0249099 -0.147837 0.769 0 0 0 158 153 185 255
-0.0442341 -0.0931997 0.908 0 0 0 105 89 1 255
0.0233681 -0.121544 0.762 0 0 0 0 70 158 255
0.00374364 -0.149179 0.783 0 0 0 97 76 6 255
0.0313401 -0.123179 0.764 0 0 0 160 173 203 255
-0.0473181 -0.168792 0.878 0 0 0 36 18 17 255
-0.0736358 -0.179033 0.923 0 0 0 72 72 44 255
0.0354341 -0.122341 0.767 0 0 0 1 31 84 255
0.0466831 -0.116052 0.778 0 0 0 184 164 62 255
-0.0256299 -0.104817 0.862 0 0 0 107 96 24 255
0.0532588 -0.146508 0.776 0 0 0 115 136 202 255
-0.0191089 -0.132064 0.837 0 0 0 104 69 74 255
-0.0513807 -0.149093 0.896 0 0 0 29 28 3 255
0.00655313 -0.100906 0.796 0 0 0 52 54 46 255
-0.0572073 -0.142795 0.915 0 0 0 101 91 40 255
0.0360808 -0.0909302 0.781 0 0 0 5 5 44 255
0.0246831 -0.143865 0.762 0 0 0 132 138 186 255
0.00777742 -0.131303 0.781 0 0 0 64 54 1 255
-0.0606581 -0.196955 0.896 0 0 0 62 85 71 255
0.0176747 -0.0394791 0.802 0 0 0 27 28 19 255
-0.0181921 -0.0751101 0.862 0 0 0 115 89 0 255
0.0441356 -0.0548851 0.805 0 0 0 186 177 134 255
-0.0205533 -0.136391 0.837 0 0 0 38 8 0 255
-0.0389237 -0.104087 0.894 0 0 0 107 94 32 255
0.0052185 -0.0878473 0.802 0 0 0 33 31 16 255
-0.0508646 -0.168993 0.887 0 0 0 38 29 16 255
-0.0459019 -0.094973 0.91 0 0 0 108 88 0 255
-0.065259 -0.114301 0.94 0 0 0 85 58 0 255
-0.0746187 -0.104716 0.956 0 0 0 105 95 0 255
0.0285905 -0.141054 0.761 0 0 0 84 124 213 255
-0.0017801 -0.0427461 0.839 0 0 0 94 79 0 255
-0.0817768 -0.193766 0.925 0 0 0 169 168 164 255
0.0135732 -0.0382396 0.805 0 0 0 23 23 23 255
0.00247796 -0.0706662 0.811 0 0 0 66 47 0 255
-0.00605073 -0.0893763 0.829 0 0 0 73 69 0 255
0.00517946 -0.102278 0.796 0 0 0 36 50 0 255
-0.00605073 -0.0908048 0.829 0 0 0 77 65 0 255
-0.00605073 -0.0922333 0.829 0 0 0 72 54 0 255
0.00801642 -0.0645949 0.805 0 0 0 79 65 12 255
-0.00605073 -0.0936617 0.829 0 0 0 75 58 5 255
-0.00724671 -0.151606 0.803 0 0 0 47 34 18 255
0.0129156 -0.138021 0.766 0 0 0 85 80 41 255
0.034283 -0.0477708 0.802 0 0 0 161 184 215 255
-0.0678875 -0.200032 0.91 0 0 0 56 51 9 255
-0.0615529 -0.115058 0.933 0 0 0 80 57 0 255
0.00105314 -0.131788 0.792 0 0 0 15 16 0 255
0.00105314 -0.135882 0.792 0 0 0 84 65 0 255
-0.0404665 -0.104087 0.894 0 0 0 111 99 37 255
-0.0199308 -0.0550084 0.873 0 0 0 110 99 11 255
-0.043211 -0.135368 0.887 0 0 0 90 78 0 255
-0.0776538 -0.166504 0.933 0 0 0 159 157 144 255
0.0520969 -0.0305115 0.821 0 0 0 141 121 0 255
0.0261408 -0.0258195 0.807 0 0 0 16 78 159 255
0.00389664 -0.0653973 0.815 0 0 0 74 69 2 255
0.0408948 -0.0707308 0.796 0 0 0 58 46 7 255
0.0379323 -0.142926 0.764 0 0 0 97 129 212 255
0.00508186 -0.139378 0.781 0 0 0 45 36 25 255
0.00508186 -0.148798 0.781 0 0 0 91 86 63 255
0.0446838 -0.0359059 0.815 0 0 0 153 156 125 255
0.0446838 -0.0373103 0.815 0 0 0 100 104 78 255
-0.0116596 -0.128125 0.821 0 0 0 37 26 0 255
0.00940562 -0.0548851 0.805 0 0 0 42 32 0 255
0.0223715 -0.0979906 0.773 0 0 0 22 57 120 255
-0.0403307 -0.111414 0.891 0 0 0 107 96 24 255
-0.0196797 -0.0780807 0.862 0 0 0 73 53 0 255
-0.0732137 -0.143152 0.938 0 0 0 98 94 34 255
0.0173882 -0.0646706 0.789 0 0 0 73 66 9 255
-0.0281073 -0.142399 0.847 0 0 0 23 18 11 255
0.033977 -0.145559 0.764 0 0 0 139 148 202 255
-0.0453334 -0.180538 0.869 0 0 0 79 55 22 255
0.0210647 -0.0941163 0.774 0 0 0 35 78 139 255
0.0210647 -0.09545 0.774 0 0 0 34 76 140 255
-0.0600355 -0.159263 0.91 0 0 0 34 15 6 255
0.0490232 -0.0374018 0.817 0 0 0 112 129 121 255
0.0489032 -0.040119 0.815 0 0 0 139 132 130 255
0.0129662 -0.12531 0.769 0 0 0 82 80 0 255
0.0079268 -0.0858185 0.796 0 0 0 21 13 0 255
-0.0467419 -0.130566 0.896 0 0 0 110 94 22 255
-0.00724671 -0.148839 0.803 0 0 0 49 40 23 255
0.0242268 -0.0552236 0.79 0 0 0 13 79 161 255
0.0210375 -0.0979906 0.773 0 0 0 44 79 142 255
0.0650437 -0.117693 0.789 0 0 0 160 163 121 255
0.054151 -0.109536 0.789 0 0 0 182 178 86 255
-0.0732137 -0.149617 0.938 0 0 0 98 94 45 255
0.0669945 -0.103649 0.796 0 0 0 171 157 59 255
-0.0248866 -0.147929 0.837 0 0 0 8 16 0 255
0.019729 -0.0914489 0.774 0 0 0 89 98 70 255
0.019729 -0.0941163 0.774 0 0 0 93 101 80 255
-0.0488271 -0.114851 0.906 0 0 0 93 71 26 255
0.019729 -0.09545 0.774 0 0 0 98 102 78 255
0.00106644 -0.111341 0.802 0 0 0 89 81 47 255
-0.0748325 -0.144768 0.938 0 0 0 88 78 29 255
-0.0301624 -0.125903 0.864 0 0 0 102 86 3 255
0.021228 -0.0814054 0.78 0 0 0 26 74 144 255
-0.0463054 -0.0736623 0.918 0 0 0 112 97 23 255
0.0592691 -0.0824222 0.803 0 0 0 189 167 74 255
0.0346677 -0.0287424 0.811 0 0 0 117 113 121 255
0.0157016 -0.113974 0.773 0 0 0 4 14 0 255
0.0116694 -0.124308 0.771 0 0 0 107 90 12 255
0.0636822 -0.117693 0.789 0 0 0 199 182 74 255
-0.0606952 -0.143575 0.92 0 0 0 101 91 44 255
0.0682569 -0.0594865 0.811 0 0 0 208 192 49 255
0.0107948 -0.0521108 0.805 0 0 0 19 22 3 255
0.0438848 -0.115754 0.776 0 0 0 63 73 42 255
0.0438848 -0.117091 0.776 0 0 0 64 74 14 255
0.00393489 -0.0419309 0.823 0 0 0 85 74 0 255
0.00530309 -0.0611843 0.815 0 0 0 83 83 1 255
0.0306897 -0.0815098 0.781 0 0 0 183 165 192 255
-0.0739943 -0.125075 0.948 0 0 0 98 92 5 255
0.0306504 -0.0854376 0.78 0 0 0 168 184 213 255
-0.0360429 -0.146406 0.862 0 0 0 55 31 0 255
-0.000329063 -0.052362 0.831 0 0 0 88 73 0 255
0.0494952 -0.117695 0.78 0 0 0 175 156 48 255
-0.00448636 -0.131177 0.805 0 0 0 34 26 0 255
0.0241961 -0.0646706 0.789 0 0 0 13 80 155 255
-0.0703493 -0.12929 0.943 0 0 0 99 91 26 255
0.0332681 -0.0287424 0.811 0 0 0 153 149 157 255
0.0229214 -0.052634 0.792 0 0 0 26 78 154 255
0.0514623 -0.0538967 0.811 0 0 0 173 144 0 255
0.0623206 -0.117693 0.789 0 0 0 195 178 70 255
-0.0272748 -0.108413 0.867 0 0 0 85 60 0 255
0.0106205 -0.0758342 0.792 0 0 0 113 98 37 255
0.0106205 -0.0785637 0.792 0 0 0 95 86 30 255
0.0130842 -0.11308 0.776 0 0 0 6 9 0 255
0.0620406 -0.0851895 0.803 0 0 0 182 161 63 255
0.0675951 -0.125531 0.787 0 0 0 141 150 133 255
-0.0690864 -0.10874 0.948 0 0 0 99 87 20 255
-0.0219978 -0.139276 0.837 0 0 0 7 0 0 255
0.0481491 -0.116351 0.78 0 0 0 181 162 82 255
-0.0437329 -0.171159 0.867 0 0 0 86 65 2 255
-0.013602 -0.0685268 0.854 0 0 0 103 77 0 255
-0.000320352 -0.103948 0.809 0 0 0 110 100 24 255
-0.0388369 -0.167904 0.858 0 0 0 84 61 5 255
-0.0779183 -0.116247 0.956 0 0 0 145 134 1 255
0.0301685 -0.040912 0.803 0 0 0 79 105 128 255
0.0697719 -0.0408081 0.829 0 0 0 206 190 32 255
0.0697719 -0.0436651 0.829 0 0 0 206 188 31 255
0.0038058 -0.107764 0.796 0 0 0 90 78 16 255
-0.00748135 -0.0965187 0.829 0 0 0 102 87 8 255
0.0358498 -0.0983709 0.776 0 0 0 0 0 32 255
-0.0133949 -0.103712 0.841 0 0 0 100 81 0 255
0.00246574 -0.088395 0.807 0 0 0 70 70 0 255
0.0135395 -0.0436793 0.803 0 0 0 16 25 0 255
-0.0608931 -0.128139 0.923 0 0 0 93 78 17 255
0.0205192 -0.0285298 0.805 0 0 0 44 83 111 255
-0.0814807 -0.164513 0.94 0 0 0 168 168 156 255
0.008116 -0.0415233 0.815 0 0 0 94 72 0 255
-0.0206516 -0.129797 0.841 0 0 0 49 19 7 255
-0.0554567 -0.179692 0.887 0 0 0 85 70 9 255
-0.0104923 -0.0834243 0.841 0 0 0 63 54 0 255
0.0220242 -0.126629 0.761 0 0 0 30 52 81 255
0.0392508 -0.142926 0.764 0 0 0 108 137 198 255
0.0065696 -0.154787 0.798 0 0 0 85 113 154 255
0.00906678 -0.143834 0.776 0 0 0 79 61 3 255
-0.0359985 -0.0736048 0.898 0 0 0 92 81 0 255
-0.0359985 -0.0751522 0.898 0 0 0 100 79 0 255
-0.0359985 -0.0766995 0.898 0 0 0 99 83 0 255
-0.0148463 -0.103712 0.841 0 0 0 98 80 0 255
0.0116997 -0.127294 0.773 0 0 0 103 85 0 255
-0.0603925 -0.0802868 0.94 0 0 0 102 82 0 255
0.021473 -0.0646706 0.789 0 0 0 27 82 150 255
-0.0377572 -0.0709026 0.903 0 0 0 92 75 0 255
-0.0392443 -0.154725 0.867 0 0 0 29 29 0 255
-0.0549353 -0.0794327 0.93 0 0 0 101 78 0 255
-0.069888 -0.0901721 0.959 0 0 0 107 96 22 255
0.0282092 -0.0699311 0.787 0 0 0 110 155 231 255
0.0345107 -0.0983709 0.776 0 0 0 120 128 161 255
-0.0136657 -0.0599771 0.858 0 0 0 99 78 0 255
-0.0258975 -0.0894019 0.871 0 0 0 21 11 0 255
0.0456319 -0.103306 0.783 0 0 0 142 122 49 255
0.0201114 -0.0646706 0.789 0 0 0 59 76 70 255
-0.0752286 -0.182214 0.923 0 0 0 81 78 72 255
-0.0349963 -0.127215 0.873 0 0 0 107 89 0 255
0.0135732 -0.0396267 0.805 0 0 0 22 24 14 255
-0.013172 -0.127636 0.827 0 0 0 39 31 0 255
0.0599546 -0.147845 0.776 0 0 0 22 95 177 255
-0.0660227 -0.0910585 0.951 0 0 0 101 90 16 255
0.0726713 -0.0901593 0.798 0 0 0 201 184 24 255
0.0268511 -0.0672189 0.787 0 0 0 22 62 153 255
0.0268511 -0.0699311 0.787 0 0 0 23 68 143 255
-0.00169736 -0.159311 0.8 0 0 0 122 137 211 255
0.00772763 -0.142497 0.776 0 0 0 80 62 4 255
-0.00450866 -0.123464 0.809 0 0 0 49 39 0 255
-0.0426264 -0.153138 0.875 0 0 0 32 32 7 255
-0.0488271 -0.117973 0.906 0 0 0 99 80 30 255
-0.0382271 -0.132482 0.878 0 0 0 93 81 0 255
-0.0644259 -0.130432 0.928 0 0 0 96 82 28 255
0.0635844 -0.0854017 0.805 0 0 0 185 166 49 255
-0.0284723 -0.129464 0.858 0 0 0 8 16 20 255
-0.0673081 -0.106881 0.946 0 0 0 99 86 22 255
-0.0426671 -0.075989 0.908 0 0 0 116 97 31 255
0.0443549 -0.0481877 0.809 0 0 0 48 60 0 255
-0.0791519 -0.132026 0.951 0 0 0 164 160 155 255
0.0473802 -0.0442233 0.813 0 0 0 45 61 49 255
-0.0442878 -0.155175 0.878 0 0 0 37 19 0 255
-0.0511693 -0.0960167 0.92 0 0 0 86 71 0 255
0.0187498 -0.0673897 0.789 0 0 0 98 108 73 255
0.0442452 -0.0522403 0.807 0 0 0 129 127 112 255
-0.0600713 -0.095971 0.935 0 0 0 87 68 6 255
0.0685399 -0.0984097 0.798 0 0 0 187 178 52 255
-0.0508646 -0.164408 0.887 0 0 0 32 27 11 255
0.0574239 -0.129458 0.778 0 0 0 184 176 81 255
-0.0260165 -0.0762428 0.875 0 0 0 86 65 0 255
0.0313401 -0.142926 0.764 0 0 0 55 106 200 255
0.0685399 -0.0901593 0.798 0 0 0 199 187 50 255
-0.0613351 -0.178858 0.906 0 0 0 0 0 0 255
0.0227767 -0.0658628 0.787 0 0 0 17 77 143 255
0.0227767 -0.0672189 0.787 0 0 0 28 74 138 255
-0.00593395 -0.124075 0.813 0 0 0 45 35 0 255
0.0241961 -0.063311 0.789 0 0 0 19 78 161 255
0.0241348 -0.0672189 0.787 0 0 0 17 82 158 255
0.0252986 -0.080164 0.781 0 0 0 16 97 174 255
0.0252662 -0.0840935 0.78 0 0 0 92 127 218 255
-0.0663831 -0.127919 0.933 0 0 0 88 79 5 255
-0.033954 -0.167211 0.847 0 0 0 88 68 9 255
-0.0459073 -0.160078 0.88 0 0 0 70 52 0 255
-0.0791519 -0.133665 0.951 0 0 0 163 159 153 255
0.0132697 -0.082136 0.787 0 0 0 54 51 0 255
-0.0317634 -0.124846 0.867 0 0 0 95 75 0 255
-0.00446964 -0.137598 0.802 0 0 0 23 10 0 255
-0.0219452 -0.144698 0.835 0 0 0 22 11 0 255
0.00664369 -0.0675365 0.807 0 0 0 49 41 0 255
0.0566384 -0.0715305 0.805 0 0 0 177 140 0 255
0.00243824 -0.156162 0.798 0 0 0 90 114 190 255
-0.0571159 -0.192352 0.889 0 0 0 71 67 0 255
0.0327441 -0.122182 0.766 0 0 0 146 176 202 255
0.0149067 -0.0450069 0.802 0 0 0 26 29 9 255
-0.0313604 -0.149812 0.856 0 0 0 51 28 0 255
0.00383448 -0.101667 0.802 0 0 0 99 91 16 255
0.0657857 -0.0984097 0.798 0 0 0 171 159 51 255
0.0495689 -0.0658181 0.803 0 0 0 192 162 49 255
0.0495689 -0.0672018 0.803 0 0 0 184 158 40 255
0.0495689 -0.0699691 0.803 0 0 0 186 166 34 255
0.0273848 -0.145559 0.764 0 0 0 172 160 205 255
0.0187023 -0.0699311 0.787 0 0 0 104 113 87 255
-0.0177067 -0.126597 0.839 0 0 0 101 82 29 255
0.0239508 -0.080164 0.781 0 0 0 0 71 149 255
0.0314632 -0.118376 0.767 0 0 0 164 165 203 255
-0.0208971 -0.106412 0.851 0 0 0 72 67 0 255
-0.0371821 -0.170064 0.854 0 0 0 78 58 0 255
-0.0540492 -0.122298 0.915 0 0 0 74 52 7 255
-0.0329143 -0.151641 0.858 0 0 0 49 37 0 255
0.0474031 -0.0906167 0.79 0 0 0 190 171 82 255
-0.0437329 -0.174147 0.867 0 0 0 77 64 19 255
-0.038706 -0.109632 0.889 0 0 0 111 100 29 255
-0.00168887 -0.140683 0.796 0 0 0 75 53 10 255
-0.0130764 -0.140857 0.821 0 0 0 47 43 26 255
-0.0392285 -0.0785083 0.901 0 0 0 89 82 0 255
-0.0164914 -0.0888154 0.851 0 0 0 33 26 0 255
0.0173441 -0.0699311 0.787 0 0 0 120 117 91 255
0.0185359 -0.0867816 0.78 0 0 0 110 119 91 255
-0.0217875 -0.167942 0.829 0 0 0 65 63 7 255
0.0227188 -0.071106 0.785 0 0 0 20 63 122 255
-0.0538044 -0.180812 0.885 0 0 0 91 76 15 255
-0.0031895 -0.07652 0.829 0 0 0 89 78 0 255
-0.00177586 -0.046971 0.837 0 0 0 84 57 0 255
-0.0678875 -0.196896 0.91 0 0 0 75 67 33 255
0.0146279 -0.0753555 0.787 0 0 0 30 32 0 255
0.0214185 -0.0672189 0.787 0 0 0 31 78 142 255
-0.0191089 -0.12918 0.837 0 0 0 112 82 69 255
-0.00724671 -0.143304 0.803 0 0 0 88 80 0 255
0.022603 -0.080164 0.781 0 0 0 6 63 130 255
0.0225741 -0.0840935 0.78 0 0 0 0 50 122 255
-0.0275265 -0.0837815 0.875 0 0 0 103 78 0 255
0.00243824 -0.11216 0.798 0 0 0 94 80 0 255
-0.00871846 -0.162899 0.811 0 0 0 79 106 165 255
-0.019634 -0.0838271 0.86 0 0 0 38 27 0 255
-0.000329855 -0.0510526 0.833 0 0 0 82 66 0 255
0.0403652 -0.033016 0.813 0 0 0 187 177 151 255
0.0516234 -0.0922109 0.792 0 0 0 185 164 28 255
-0.0716527 -0.185973 0.918 0 0 0 0 0 0 255
-0.0716527 -0.187554 0.918 0 0 0 67 59 10 255
0.0201369 -0.06203 0.79 0 0 0 29 78 75 255
-0.0320565 -0.109413 0.875 0 0 0 93 92 17 255
-0.0190176 -0.141481 0.833 0 0 0 105 78 35 255
-0.0190176 -0.142916 0.833 0 0 0 116 86 50 255
-0.00307793 -0.156554 0.8 0 0 0 69 78 91 255
0.0412544 -0.0588997 0.803 0 0 0 176 165 121 255
0.0531216 -0.136795 0.774 0 0 0 165 158 58 255
0.0443937 -0.0981592 0.785 0 0 0 143 127 42 255
0.00104915 -0.143525 0.789 0 0 0 44 51 49 255
0.0561459 -0.0860341 0.798 0 0 0 186 169 11 255
0.0588926 -0.050072 0.817 0 0 0 175 156 35 255
0.0447935 -0.0331784 0.817 0 0 0 171 171 130 255
-0.0260165 -0.0792583 0.875 0 0 0 101 73 0 255
-0.0572444 -0.180503 0.891 0 0 0 86 70 0 255
0.0168372 -0.142926 0.764 0 0 0 90 109 130 255
0.0390743 -0.082136 0.787 0 0 0 26 42 0 255
-0.0737953 -0.173046 0.925 0 0 0 80 80 51 255
-0.0817407 -0.148789 0.943 0 0 0 163 164 148 255
0.0552492 -0.0673691 0.805 0 0 0 182 166 13 255
-0.0754707 -0.137852 0.946 0 0 0 87 84 35 255
0.0379558 -0.0744695 0.792 0 0 0 9 8 15 255
-0.0660274 -0.135229 0.928 0 0 0 100 92 29 255
-0.0450948 -0.131815 0.894 0 0 0 108 94 10 255
0.0325303 -0.129252 0.761 0 0 0 110 180 254 255
-0.0106794 -0.0465622 0.856 0 0 0 107 85 0 255
-0.0199308 -0.058017 0.873 0 0 0 101 84 8 255
0.0185597 -0.0815098 0.781 0 0 0 114 124 103 255
0.0185597 -0.0828556 0.781 0 0 0 112 118 80 255
0.0185597 -0.0842013 0.781 0 0 0 110 119 91 255
0.0533961 -0.149567 0.778 0 0 0 117 131 200 255
-0.0676288 -0.15122 0.928 0 0 0 108 97 66 255
-0.042529 -0.155796 0.873 0 0 0 22 25 6 255
0.00111032 -0.0382259 0.835 0 0 0 107 81 0 255
-0.00740915 -0.118222 0.821 0 0 0 31 20 0 255
0.0663628 -0.0729176 0.805 0 0 0 180 160 44 255
0.0624677 -0.0307345 0.827 0 0 0 182 168 18 255
0.0359422 -0.0972839 0.778 0 0 0 0 0 20 255
-0.0262681 -0.164842 0.835 0 0 0 77 56 0 255
-0.0262681 -0.169158 0.835 0 0 0 82 70 6 255
-0.047368 -0.0994581 0.908 0 0 0 94 78 0 255
0.0520535 -0.149567 0.778 0 0 0 119 129 198 255
0.0698283 -0.0554305 0.813 0 0 0 208 191 13 255
-0.00882596 -0.118222 0.821 0 0 0 31 20 0 255
0.0331861 -0.0300655 0.809 0 0 0 160 153 169 255
0.0591953 -0.0850834 0.802 0 0 0 187 169 68 255
-0.0492226 -0.196062 0.885 0 0 0 129 149 194 255
0.0403297 -0.0886906 0.785 0 0 0 66 33 0 255
-0.0321664 -0.100711 0.878 0 0 0 33 22 0 255
0.00790688 -0.0992846 0.794 0 0 0 92 78 19 255
-0.0102677 -0.119928 0.823 0 0 0 23 26 0 255
-0.00878296 -0.128909 0.817 0 0 0 32 24 0 255
0.00253296 -0.0393797 0.829 0 0 0 95 82 0 255
0.00531611 -0.0514798 0.817 0 0 0 102 81 0 255
-0.0441366 -0.0945556 0.906 0 0 0 102 86 3 255
0.0524708 -0.0645949 0.805 0 0 0 171 140 0 255
0.0246255 -0.0326099 0.803 0 0 0 29 59 142 255
-0.0570822 -0.148776 0.913 0 0 0 37 38 0 255
-0.0173268 -0.159248 0.821 0 0 0 50 43 2 255
0.0491368 -0.0817037 0.796 0 0 0 180 150 0 255
0.0449032 -0.0318484 0.819 0 0 0 171 171 141 255
-0.0532222 -0.142163 0.901 0 0 0 98 91 7 255
-0.0768214 -0.183805 0.923 0 0 0 140 138 134 255
0.053602 -0.1165 0.781 0 0 0 164 151 46 255
0.0477631 -0.0817037 0.796 0 0 0 182 155 0 255
0.0260664 -0.117913 0.764 0 0 0 0 42 154 255
0.0271339 -0.131181 0.757 0 0 0 101 125 217 255
0.0158641 -0.0855471 0.781 0 0 0 114 101 58 255
0.0158641 -0.0868929 0.781 0 0 0 109 99 52 255
-0.00447522 -0.159908 0.803 0 0 0 122 137 211 255
-0.0762685 -0.112952 0.956 0 0 0 116 104 10 255
-0.00470929 -0.0415958 0.845 0 0 0 102 75 0 255
-0.0415863 -0.136588 0.885 0 0 0 78 69 0 255
0.0142375 -0.122182 0.766 0 0 0 0 0 0 255
-0.0583366 -0.158913 0.908 0 0 0 60 41 31 255
-0.0120572 -0.0769032 0.849 0 0 0 92 77 0 255
0.0501297 -0.0947006 0.79 0 0 0 192 171 46 255
0.0247479 -0.117913 0.764 0 0 0 0 58 150 255
-0.060264 -0.0930464 0.938 0 0 0 82 65 0 255
0.034112 -0.0571579 0.798 0 0 0 26 72 122 255
0.0493683 -0.148227 0.778 0 0 0 120 136 190 255
0.0354341 -0.12102 0.767 0 0 0 1 33 104 255
0.0313401 -0.145559 0.764 0 0 0 139 145 205 255
0.0649736 -0.0729176 0.805 0 0 0 151 143 41 255
0.0246507 -0.124007 0.761 0 0 0 0 54 145 255
-0.0279745 -0.153347 0.843 0 0 0 46 25 0 255
0.0481491 -0.149952 0.78 0 0 0 135 146 192 255
0.021854 -0.0339936 0.803 0 0 0 30 84 159 255
-0.0737953 -0.177827 0.925 0 0 0 74 74 47 255
0.00378667 -0.119505 0.792 0 0 0 85 73 4 255
-0.0589791 -0.140099 0.918 0 0 0 102 93 41 255
0.0364701 -0.148922 0.761 0 0 0 154 159 196 255
0.0439711 -0.0657361 0.802 0 0 0 178 144 0 255
0.0325731 -0.128109 0.762 0 0 0 158 174 187 255
-0.0607935 -0.185016 0.898 0 0 0 81 66 21 255
-0.0489349 -0.107281 0.908 0 0 0 95 76 0 255
-0.0489349 -0.11041 0.908 0 0 0 94 77 12 255
0.0437151 -0.123298 0.773 0 0 0 69 84 104 255
0.0103791 -0.139462 0.774 0 0 0 25 22 0 255
0.008116 -0.0457364 0.815 0 0 0 92 77 0 255
-0.0365864 -0.125998 0.875 0 0 0 100 81 0 255
-0.0365864 -0.127506 0.875 0 0 0 105 88 0 255
-0.0365864 -0.129014 0.875 0 0 0 106 86 0 255
0.0474701 -0.138561 0.769 0 0 0 52 76 125 255
-0.0335664 -0.115444 0.875 0 0 0 102 86 5 255
0.0639003 -0.0704919 0.809 0 0 0 166 141 0 255
-0.0355575 -0.0986863 0.887 0 0 0 47 36 0 255
-0.0164139 -0.178886 0.847 0 0 0 141 148 164 255
-0.0332596 -0.135304 0.867 0 0 0 77 62 1 255
-0.0332596 -0.136798 0.867 0 0 0 79 57 0 255
0.00253907 -0.0380428 0.831 0 0 0 100 81 0 255
0.051719 -0.133954 0.773 0 0 0 180 159 64 255
-0.0530437 -0.0869751 0.925 0 0 0 89 50 0 255
0.046143 -0.138561 0.769 0 0 0 39 72 122 255
0.022111 -0.117913 0.764 0 0 0 27 51 84 255
0.00507535 -0.143231 0.78 0 0 0 79 60 0 255
-0.0105671 -0.0665056 0.847 0 0 0 104 79 0 255
0.0694847 -0.08025 0.809 0 0 0 203 188 32 255
-0.0347557 -0.136798 0.867 0 0 0 100 71 13 255
-0.0686335 -0.165769 0.92 0 0 0 37 33 16 255
0.0438614 -0.0710862 0.8 0 0 0 91 67 16 255
0.0119419 -0.090502 0.789 0 0 0 109 101 20 255
-0.0286714 -0.115482 0.864 0 0 0 105 90 0 255
0.0433836 -0.0275473 0.817 0 0 0 185 176 131 255
0.0220242 -0.124007 0.761 0 0 0 21 49 88 255
-0.0688573 -0.161538 0.923 0 0 0 28 28 0 255
0.0410471 -0.121966 0.773 0 0 0 0 0 24 255
0.0477299 -0.0332597 0.819 0 0 0 131 126 143 255
0.0258275 -0.131181 0.757 0 0 0 47 71 163 255
-0.0177911 -0.176589 0.843 0 0 0 91 103 181 255
0.0338881 -0.135987 0.762 0 0 0 0 69 160 255
0.0680886 -0.08025 0.809 0 0 0 198 187 100 255
0.00383926 -0.0962589 0.803 0 0 0 104 94 38 255
-0.000329063 -0.0537939 0.831 0 0 0 97 79 0 255
-0.0494738 -0.0926443 0.918 0 0 0 80 70 0 255
-0.0494738 -0.0942261 0.918 0 0 0 78 67 0 255
0.0207381 -0.121544 0.762 0 0 0 59 85 124 255
0.0219084 -0.131181 0.757 0 0 0 34 53 78 255
0.0219084 -0.132486 0.757 0 0 0 31 50 71 255
-0.0106794 -0.0495122 0.856 0 0 0 104 82 0 255
0.0498125 -0.107628 0.785 0 0 0 194 179 89 255
0.046143 -0.131936 0.769 0 0 0 132 128 138 255
