ply
format ascii 1.0
element vertex 1005
property float x
property float y
property float z
property float normal_x
property float normal_y
property float normal_z
property uchar red
property uchar green
property uchar blue
property uchar alpha
end_header
0.161225 -0.0277891 0.918 0 0 0 234 238 242 255
0.157666 -0.0728671 0.889 0 0 0 149 167 157 255
0.162809 -0.0167162 0.918 0 0 0 206 216 165 255
0.162809 -0.0198799 0.918 0 0 0 214 225 210 255
0.162809 -0.0214617 0.918 0 0 0 207 216 215 255
0.162809 -0.0246254 0.918 0 0 0 215 224 223 255
0.159262 -0.0596784 0.898 0 0 0 240 250 247 255
0.158908 -0.0610895 0.896 0 0 0 246 246 244 255
0.158908 -0.0641773 0.896 0 0 0 171 192 146 255
0.156483 -0.0684251 0.891 0 0 0 175 177 161 255
0.12362 -0.07051 0.898 0 0 0 78 100 75 255
0.159119 0.000681732 0.915 0 0 0 191 198 184 255
0.159119 -0.000894934 0.915 0 0 0 178 188 169 255
0.159119 -0.0135083 0.915 0 0 0 161 165 168 255
0.159119 -0.0150849 0.915 0 0 0 169 178 182 255
0.159119 -0.0166616 0.915 0 0 0 170 179 192 255
0.159119 -0.0198149 0.915 0 0 0 221 227 234 255
0.159119 -0.0213916 0.915 0 0 0 228 232 240 255
0.159119 -0.0229682 0.915 0 0 0 222 229 238 255
0.159119 -0.0245449 0.915 0 0 0 228 235 235 255
0.155815 -0.0626334 0.896 0 0 0 132 133 112 255
0.154946 -0.0668898 0.891 0 0 0 86 104 75 255
0.15425 -0.0727032 0.887 0 0 0 142 144 123 255
0.155781 -0.0849305 0.887 0 0 0 240 252 248 255
0.155781 -0.0879873 0.887 0 0 0 107 144 225 255
0.155781 -0.0895158 0.887 0 0 0 191 193 220 255
0.155781 -0.0910442 0.887 0 0 0 184 200 213 255
0.155781 -0.0971579 0.887 0 0 0 255 255 255 255
0.155781 -0.0986863 0.887 0 0 0 200 207 216 255
0.155781 -0.100215 0.887 0 0 0 201 205 204 255
0.159641 -0.0277891 0.918 0 0 0 235 240 239 255
0.156163 -0.0550363 0.898 0 0 0 238 247 255 255
0.157713 -0.0565837 0.898 0 0 0 244 245 242 255
0.157713 -0.0596784 0.898 0 0 0 210 220 217 255
0.157361 -0.0610895 0.896 0 0 0 192 192 190 255
0.157361 -0.0626334 0.896 0 0 0 130 139 111 255
0.154946 -0.0684251 0.891 0 0 0 166 169 154 255
0.155781 -0.0925726 0.887 0 0 0 148 177 181 255
0.155781 -0.0956294 0.887 0 0 0 255 255 255 255
0.158401 0.0101971 0.92 0 0 0 249 246 236 255
0.158918 0.00863994 0.923 0 0 0 223 229 218 255
0.159641 0.0022658 0.918 0 0 0 214 220 197 255
0.15754 0.000681732 0.915 0 0 0 175 182 168 255
0.15754 -0.000894934 0.915 0 0 0 185 195 176 255
0.15754 -0.00720159 0.915 0 0 0 190 193 190 255
0.15754 -0.0198149 0.915 0 0 0 240 245 253 255
0.15754 -0.0276982 0.915 0 0 0 232 237 235 255
0.15754 -0.0292749 0.915 0 0 0 220 222 221 255
0.15754 -0.0308516 0.915 0 0 0 214 219 220 255
0.15754 -0.0324282 0.915 0 0 0 209 217 214 255
0.15754 -0.0355816 0.915 0 0 0 224 227 226 255
0.15754 -0.0371582 0.915 0 0 0 227 229 226 255
0.155474 -0.0506748 0.903 0 0 0 231 233 237 255
0.154613 -0.053489 0.898 0 0 0 203 206 214 255
0.154613 -0.0550363 0.898 0 0 0 174 183 214 255
0.154613 -0.0565837 0.898 0 0 0 167 171 172 255
0.155815 -0.0595455 0.896 0 0 0 192 207 197 255
0.155815 -0.0610895 0.896 0 0 0 160 174 176 255
0.153408 -0.0653545 0.891 0 0 0 130 144 114 255
0.152719 -0.0788168 0.887 0 0 0 199 205 208 255
0.152719 -0.0849305 0.887 0 0 0 255 255 255 255
0.152719 -0.0879873 0.887 0 0 0 206 220 234 255
0.152719 -0.0895158 0.887 0 0 0 195 202 215 255
0.152719 -0.0910442 0.887 0 0 0 193 206 209 255
0.152719 -0.0971579 0.887 0 0 0 255 255 255 255
0.152719 -0.0986863 0.887 0 0 0 218 220 222 255
0.152719 -0.100215 0.887 0 0 0 212 217 215 255
0.152719 -0.0925726 0.887 0 0 0 202 223 232 255
0.152719 -0.0956294 0.887 0 0 0 255 255 255 255
0.157325 0.0118208 0.923 0 0 0 246 246 234 255
0.156814 0.0101971 0.92 0 0 0 242 247 246 255
0.156814 0.00861186 0.92 0 0 0 212 219 203 255
0.156473 0.00542947 0.918 0 0 0 156 165 141 255
0.155961 -0.0276982 0.915 0 0 0 232 238 240 255
0.155961 -0.0292749 0.915 0 0 0 220 225 226 255
0.155961 -0.0308516 0.915 0 0 0 219 224 222 255
0.155961 -0.0324282 0.915 0 0 0 218 224 226 255
0.155961 -0.0355816 0.915 0 0 0 218 225 222 255
0.154768 -0.0431324 0.908 0 0 0 227 233 236 255
0.154427 -0.0445985 0.906 0 0 0 226 235 239 255
0.155991 -0.0477208 0.906 0 0 0 238 236 234 255
0.153064 -0.0550363 0.898 0 0 0 167 177 158 255
0.152723 -0.0564577 0.896 0 0 0 149 153 138 255
0.152723 -0.0580016 0.896 0 0 0 143 150 148 255
0.151871 -0.0653545 0.891 0 0 0 157 148 131 255
0.151189 -0.0711748 0.887 0 0 0 203 204 194 255
0.151189 -0.07576 0.887 0 0 0 208 209 204 255
0.151189 -0.0772884 0.887 0 0 0 202 209 211 255
0.151189 -0.0849305 0.887 0 0 0 255 255 255 255
0.151189 -0.0864589 0.887 0 0 0 251 253 255 255
0.150848 -0.087789 0.885 0 0 0 228 233 234 255
0.150848 -0.0908389 0.885 0 0 0 190 202 200 255
0.150848 -0.0938888 0.885 0 0 0 228 232 240 255
0.150848 -0.0954138 0.885 0 0 0 255 255 255 255
0.151189 -0.0971579 0.887 0 0 0 255 255 255 255
0.151189 -0.0986863 0.887 0 0 0 223 227 230 255
0.151189 -0.101743 0.887 0 0 0 225 229 230 255
0.155226 0.0181235 0.92 0 0 0 239 233 217 255
0.155226 0.0165383 0.92 0 0 0 246 240 224 255
0.155226 0.0117824 0.92 0 0 0 195 194 183 255
0.154888 0.00542947 0.918 0 0 0 171 180 156 255
0.155961 -0.000894934 0.915 0 0 0 194 198 176 255
0.155961 -0.00720159 0.915 0 0 0 190 199 201 255
0.154045 -0.0119055 0.913 0 0 0 185 194 209 255
0.154045 -0.0134787 0.913 0 0 0 167 178 179 255
0.15562 -0.022918 0.913 0 0 0 223 230 232 255
0.15562 -0.0244913 0.913 0 0 0 221 229 235 255
0.15562 -0.0260645 0.913 0 0 0 232 238 240 255
0.154045 -0.0292109 0.913 0 0 0 220 225 226 255
0.154045 -0.0307841 0.913 0 0 0 219 224 222 255
0.153201 -0.0431324 0.908 0 0 0 212 218 221 255
0.152864 -0.0445985 0.906 0 0 0 198 207 211 255
0.152864 -0.0477208 0.906 0 0 0 175 185 182 255
0.153916 -0.0506748 0.903 0 0 0 220 223 217 255
0.153916 -0.0522308 0.903 0 0 0 214 222 215 255
0.151514 -0.0550363 0.898 0 0 0 151 161 142 255
0.151177 -0.0564577 0.896 0 0 0 157 161 146 255
0.150333 -0.0607486 0.891 0 0 0 164 172 156 255
0.149321 -0.0771141 0.885 0 0 0 201 208 210 255
0.149321 -0.0786391 0.885 0 0 0 203 206 212 255
0.149321 -0.083214 0.885 0 0 0 254 255 255 255
0.149321 -0.084739 0.885 0 0 0 255 255 255 255
0.149321 -0.087789 0.885 0 0 0 226 231 231 255
0.149321 -0.0908389 0.885 0 0 0 186 198 196 255
0.149321 -0.0938888 0.885 0 0 0 233 236 244 255
0.149321 -0.0954138 0.885 0 0 0 255 255 255 255
0.153539 -0.0385232 0.91 0 0 0 216 224 221 255
0.153539 -0.0400913 0.91 0 0 0 218 224 226 255
0.153638 0.0117824 0.92 0 0 0 149 182 130 255
0.153304 0.010175 0.918 0 0 0 150 169 104 255
0.153304 0.00701131 0.918 0 0 0 166 167 144 255
0.152803 0.00541173 0.915 0 0 0 170 177 161 255
0.152803 0.0022584 0.915 0 0 0 159 171 151 255
0.152469 -0.00718585 0.913 0 0 0 193 200 198 255
0.152469 -0.00875907 0.913 0 0 0 193 203 193 255
0.151968 -0.0134344 0.91 0 0 0 158 178 151 255
0.152469 -0.0213448 0.913 0 0 0 218 223 221 255
0.152469 -0.022918 0.913 0 0 0 221 226 225 255
0.152469 -0.0244913 0.913 0 0 0 230 240 234 255
0.152469 -0.0276377 0.913 0 0 0 230 238 246 255
0.152469 -0.0292109 0.913 0 0 0 216 223 225 255
0.151634 -0.0431324 0.908 0 0 0 213 217 223 255
0.1513 -0.0445985 0.906 0 0 0 201 207 212 255
0.1513 -0.0477208 0.906 0 0 0 176 182 182 255
0.1513 -0.049282 0.906 0 0 0 176 182 175 255
0.150799 -0.0506748 0.903 0 0 0 182 179 182 255
0.148795 -0.0607486 0.891 0 0 0 170 169 163 255
0.147793 -0.0786391 0.885 0 0 0 203 214 201 255
0.147793 -0.083214 0.885 0 0 0 255 255 255 255
0.147793 -0.084739 0.885 0 0 0 255 255 255 255
0.147292 -0.0859716 0.882 0 0 0 246 245 248 255
0.149658 -0.0971579 0.887 0 0 0 255 255 255 255
0.149658 -0.0986863 0.887 0 0 0 248 252 255 255
0.149658 -0.101743 0.887 0 0 0 233 238 238 255
0.162634 -0.0745663 0.891 0 0 0 206 208 209 255
0.153638 0.0181235 0.92 0 0 0 234 236 222 255
0.153638 0.0165383 0.92 0 0 0 247 243 224 255
0.15172 0.00859314 0.918 0 0 0 175 178 134 255
0.151224 0.00541173 0.915 0 0 0 159 166 150 255
0.151224 -0.000894934 0.915 0 0 0 104 130 99 255
0.150894 -0.00561263 0.913 0 0 0 195 199 202 255
0.150894 -0.00718585 0.913 0 0 0 157 164 162 255
0.150067 -0.0118403 0.908 0 0 0 142 164 141 255
0.150067 -0.0134049 0.908 0 0 0 156 177 149 255
0.150067 -0.0149695 0.908 0 0 0 160 174 183 255
0.150067 -0.0165341 0.908 0 0 0 197 201 193 255
0.151968 -0.0369552 0.91 0 0 0 219 225 228 255
0.149737 -0.0445985 0.906 0 0 0 209 215 220 255
0.149241 -0.0475628 0.903 0 0 0 180 187 187 255
0.148415 -0.0519416 0.898 0 0 0 175 173 185 255
0.148415 -0.053489 0.898 0 0 0 175 173 173 255
0.149964 -0.0550363 0.898 0 0 0 159 161 149 255
0.14963 -0.0564577 0.896 0 0 0 169 168 162 255
0.147258 -0.0607486 0.891 0 0 0 168 167 160 255
0.146927 -0.0652078 0.889 0 0 0 176 181 181 255
0.147793 -0.0908389 0.885 0 0 0 185 197 195 255
0.147793 -0.0938888 0.885 0 0 0 240 245 245 255
0.147793 -0.0954138 0.885 0 0 0 255 255 255 255
0.146597 -0.0971579 0.887 0 0 0 251 253 255 255
0.146597 -0.0986863 0.887 0 0 0 255 255 255 255
0.146597 -0.100215 0.887 0 0 0 253 255 255 255
0.146927 -0.101973 0.889 0 0 0 228 236 242 255
0.150463 0.0165383 0.92 0 0 0 207 215 167 255
0.150136 0.0133386 0.918 0 0 0 145 153 120 255
0.15172 0.0117568 0.918 0 0 0 123 157 105 255
0.149645 0.00698839 0.915 0 0 0 184 190 183 255
0.149645 0.00541173 0.915 0 0 0 160 166 155 255
0.149318 0.00225346 0.913 0 0 0 163 162 156 255
0.149318 -0.00403942 0.913 0 0 0 192 196 200 255
0.148827 -0.00559419 0.91 0 0 0 195 200 194 255
0.1485 -0.0118403 0.908 0 0 0 138 147 148 255
0.1485 -0.0134049 0.908 0 0 0 169 178 180 255
0.1485 -0.0149695 0.908 0 0 0 183 190 204 255
0.1485 -0.0165341 0.908 0 0 0 208 210 214 255
0.1485 -0.0196633 0.908 0 0 0 217 226 228 255
0.1485 -0.0259217 0.908 0 0 0 209 220 219 255
0.1485 -0.0274863 0.908 0 0 0 210 219 223 255
0.1485 -0.036874 0.908 0 0 0 229 237 232 255
0.148173 -0.0414762 0.906 0 0 0 221 223 222 255
0.149737 -0.0430374 0.906 0 0 0 216 219 225 255
0.147356 -0.0505626 0.901 0 0 0 159 174 169 255
0.146865 -0.053489 0.898 0 0 0 172 170 157 255
0.146865 -0.0550363 0.898 0 0 0 169 175 166 255
0.146538 -0.0564577 0.896 0 0 0 170 176 167 255
0.14577 -0.0890112 0.882 0 0 0 165 184 182 255
0.144739 -0.0908389 0.885 0 0 0 194 201 214 255
0.144739 -0.0938888 0.885 0 0 0 237 241 242 255
0.144739 -0.0954138 0.885 0 0 0 204 234 229 255
0.145066 -0.0971579 0.887 0 0 0 219 234 243 255
0.145066 -0.0986863 0.887 0 0 0 247 253 246 255
0.145393 -0.101973 0.889 0 0 0 232 241 243 255
0.14572 -0.103737 0.891 0 0 0 236 243 245 255
0.148066 0.0132951 0.915 0 0 0 156 163 131 255
0.148066 0.0117184 0.915 0 0 0 172 175 160 255
0.147257 0.000678006 0.91 0 0 0 162 167 175 255
0.147257 -0.00559419 0.91 0 0 0 212 218 211 255
0.146933 -0.0118403 0.908 0 0 0 164 172 174 255
0.146933 -0.0134049 0.908 0 0 0 189 198 200 255
0.146933 -0.0149695 0.908 0 0 0 203 210 224 255
0.146933 -0.0165341 0.908 0 0 0 237 239 243 255
0.146933 -0.0196633 0.908 0 0 0 222 231 232 255
0.146933 -0.0306155 0.908 0 0 0 203 214 213 255
0.14661 -0.0430374 0.906 0 0 0 217 220 219 255
0.147683 -0.0475628 0.903 0 0 0 183 184 179 255
0.145801 -0.0505626 0.901 0 0 0 138 153 148 255
0.145315 -0.053489 0.898 0 0 0 166 164 151 255
0.145315 -0.0550363 0.898 0 0 0 166 172 163 255
0.144992 -0.0564577 0.896 0 0 0 178 184 176 255
0.144182 -0.0592132 0.891 0 0 0 178 179 174 255
0.14572 -0.0607486 0.891 0 0 0 166 164 158 255
0.143212 -0.0771141 0.885 0 0 0 112 126 101 255
0.143212 -0.0801641 0.885 0 0 0 177 195 168 255
0.142726 -0.0874914 0.882 0 0 0 220 227 225 255
0.142726 -0.0890112 0.882 0 0 0 197 207 215 255
0.143212 -0.0908389 0.885 0 0 0 210 217 231 255
0.143212 -0.0938888 0.885 0 0 0 240 245 245 255
0.143212 -0.0954138 0.885 0 0 0 167 197 191 255
0.0797056 -0.0264927 0.928 0 0 0 197 216 200 255
0.146487 0.0132951 0.915 0 0 0 156 155 130 255
0.146487 0.0117184 0.915 0 0 0 180 163 141 255
0.146167 0.00854634 0.913 0 0 0 204 206 194 255
0.147743 0.0053999 0.913 0 0 0 148 155 143 255
0.147743 0.00382668 0.913 0 0 0 136 153 133 255
0.145366 -0.0087111 0.908 0 0 0 156 164 155 255
0.145366 -0.0118403 0.908 0 0 0 183 186 183 255
0.145366 -0.0134049 0.908 0 0 0 190 200 197 255
0.145366 -0.0149695 0.908 0 0 0 209 217 221 255
0.145366 -0.0165341 0.908 0 0 0 225 235 232 255
0.145366 -0.0196633 0.908 0 0 0 222 230 234 255
0.145366 -0.0306155 0.908 0 0 0 199 212 203 255
0.145046 -0.0430374 0.906 0 0 0 215 222 222 255
0.144566 -0.0460068 0.903 0 0 0 183 189 178 255
0.143766 -0.0550363 0.898 0 0 0 170 177 177 255
0.143445 -0.0564577 0.896 0 0 0 172 186 184 255
0.142645 -0.0592132 0.891 0 0 0 178 178 180 255
0.142645 -0.0607486 0.891 0 0 0 175 179 180 255
0.143535 -0.0742316 0.887 0 0 0 134 136 151 255
0.141204 -0.0859716 0.882 0 0 0 222 230 236 255
0.141204 -0.0874914 0.882 0 0 0 216 224 228 255
0.141204 -0.0890112 0.882 0 0 0 195 213 198 255
0.142004 -0.0956294 0.887 0 0 0 189 202 207 255
0.143535 -0.0971579 0.887 0 0 0 188 202 211 255
0.143535 -0.0986863 0.887 0 0 0 232 238 231 255
0.142645 -0.103737 0.891 0 0 0 233 238 238 255
0.144908 0.0148717 0.915 0 0 0 158 157 135 255
0.144908 0.0132951 0.915 0 0 0 148 147 122 255
0.144908 0.0117184 0.915 0 0 0 166 149 127 255
0.144591 0.00854634 0.913 0 0 0 196 198 185 255
0.144591 0.0053999 0.913 0 0 0 172 182 174 255
0.145687 0.000678006 0.91 0 0 0 166 176 168 255
0.145687 -0.000890043 0.91 0 0 0 200 207 205 255
0.143483 -0.0336704 0.906 0 0 0 181 196 191 255
0.143483 -0.0352316 0.906 0 0 0 181 197 183 255
0.143008 -0.0460068 0.903 0 0 0 166 172 161 255
0.142691 -0.0474575 0.901 0 0 0 155 158 141 255
0.143766 -0.053489 0.898 0 0 0 166 167 164 255
0.141107 -0.0592132 0.891 0 0 0 179 179 181 255
0.140474 -0.0727032 0.887 0 0 0 117 129 98 255
0.140474 -0.0742316 0.887 0 0 0 95 110 75 255
0.141684 -0.0771141 0.885 0 0 0 69 95 77 255
0.141684 -0.0908389 0.885 0 0 0 209 226 190 255
0.141684 -0.0938888 0.885 0 0 0 239 245 255 255
0.140474 -0.0956294 0.887 0 0 0 209 222 227 255
0.140474 -0.0971579 0.887 0 0 0 211 219 226 255
0.140474 -0.0986863 0.887 0 0 0 216 224 221 255
0.144112 0.0276352 0.92 0 0 0 234 225 210 255
0.143329 0.0164484 0.915 0 0 0 159 161 122 255
0.143329 0.0148717 0.915 0 0 0 155 156 121 255
0.143329 0.0132951 0.915 0 0 0 149 149 110 255
0.143016 0.0116928 0.913 0 0 0 156 158 146 255
0.142546 0.00538216 0.91 0 0 0 191 196 196 255
0.142546 0.000678006 0.91 0 0 0 197 207 206 255
0.1438 -0.0134049 0.908 0 0 0 216 226 222 255
0.1438 -0.0149695 0.908 0 0 0 217 226 230 255
0.1438 -0.0165341 0.908 0 0 0 219 229 226 255
0.1438 -0.0196633 0.908 0 0 0 221 229 233 255
0.1438 -0.0212279 0.908 0 0 0 228 231 242 255
0.1438 -0.0227925 0.908 0 0 0 223 230 232 255
0.1438 -0.0306155 0.908 0 0 0 189 202 193 255
0.141449 -0.0428949 0.903 0 0 0 197 205 193 255
0.141136 -0.0474575 0.901 0 0 0 171 173 172 255
0.141899 -0.0549137 0.896 0 0 0 192 199 199 255
0.141899 -0.0564577 0.896 0 0 0 180 194 192 255
0.14004 -0.0594126 0.894 0 0 0 175 180 163 255
0.138943 -0.0727032 0.887 0 0 0 145 144 137 255
0.138943 -0.07576 0.887 0 0 0 134 134 134 255
0.13863 -0.0771141 0.885 0 0 0 114 122 115 255
0.13863 -0.0893139 0.885 0 0 0 177 195 196 255
0.13863 -0.0908389 0.885 0 0 0 132 150 139 255
0.13863 -0.0938888 0.885 0 0 0 198 210 197 255
0.138943 -0.0956294 0.887 0 0 0 219 229 226 255
0.138943 -0.0971579 0.887 0 0 0 233 237 240 255
0.138943 -0.0986863 0.887 0 0 0 226 230 235 255
0.142525 0.0276352 0.92 0 0 0 237 228 213 255
0.143799 0.0228296 0.918 0 0 0 205 199 164 255
0.14144 0.0116928 0.913 0 0 0 199 201 189 255
0.140975 0.00538216 0.91 0 0 0 208 212 213 255
0.140666 -0.0134049 0.908 0 0 0 230 234 237 255
0.140666 -0.0149695 0.908 0 0 0 221 228 226 255
0.140666 -0.0165341 0.908 0 0 0 215 224 223 255
0.140666 -0.0227925 0.908 0 0 0 240 244 247 255
0.140666 -0.0306155 0.908 0 0 0 204 208 202 255
0.140666 -0.0321802 0.908 0 0 0 198 208 205 255
0.141919 -0.0336704 0.906 0 0 0 195 205 201 255
0.141919 -0.0352316 0.906 0 0 0 195 203 200 255
0.141919 -0.0367927 0.906 0 0 0 189 193 183 255
0.141919 -0.0399151 0.906 0 0 0 173 176 184 255
0.141919 -0.0414762 0.906 0 0 0 184 196 194 255
0.139581 -0.0474575 0.901 0 0 0 196 199 198 255
0.138807 -0.0549137 0.896 0 0 0 192 199 197 255
0.138807 -0.0564577 0.896 0 0 0 170 183 172 255
0.138497 -0.0594126 0.894 0 0 0 157 162 144 255
0.13957 -0.0607486 0.891 0 0 0 171 179 181 255
0.138032 -0.0622839 0.891 0 0 0 119 127 106 255
0.137412 -0.0727032 0.887 0 0 0 175 174 167 255
0.137412 -0.07576 0.887 0 0 0 173 173 173 255
0.137103 -0.0816891 0.885 0 0 0 224 224 221 255
0.137103 -0.083214 0.885 0 0 0 221 230 229 255
0.137103 -0.084739 0.885 0 0 0 223 227 226 255
0.137103 -0.087789 0.885 0 0 0 211 219 228 255
0.137103 -0.0893139 0.885 0 0 0 191 209 210 255
0.137412 -0.0956294 0.887 0 0 0 218 228 225 255
0.137412 -0.0971579 0.887 0 0 0 237 241 244 255
0.138032 -0.103737 0.891 0 0 0 232 236 239 255
0.140937 0.0276352 0.92 0 0 0 236 221 185 255
0.140171 0.0196017 0.915 0 0 0 170 169 146 255
0.14175 0.0164484 0.915 0 0 0 164 166 126 255
0.14175 0.0148717 0.915 0 0 0 174 175 141 255
0.139865 0.0116928 0.913 0 0 0 194 199 195 255
0.139405 0.00538216 0.91 0 0 0 217 216 219 255
0.139099 -0.0055819 0.908 0 0 0 202 212 220 255
0.139099 -0.0149695 0.908 0 0 0 220 226 229 255
0.139099 -0.0290509 0.908 0 0 0 197 197 181 255
0.139099 -0.0306155 0.908 0 0 0 201 206 186 255
0.139099 -0.0321802 0.908 0 0 0 198 207 194 255
0.138792 -0.0336704 0.906 0 0 0 201 210 198 255
0.138792 -0.0352316 0.906 0 0 0 201 210 207 255
0.139891 -0.0428949 0.903 0 0 0 199 208 196 255
0.13726 -0.0549137 0.896 0 0 0 191 199 192 255
0.13726 -0.0564577 0.896 0 0 0 175 182 168 255
0.136954 -0.0594126 0.894 0 0 0 148 156 146 255
0.136494 -0.0607486 0.891 0 0 0 140 149 151 255
0.136494 -0.0622839 0.891 0 0 0 115 126 113 255
0.139349 0.0308058 0.92 0 0 0 240 233 222 255
0.139046 0.0259933 0.918 0 0 0 151 151 112 255
0.138592 0.0211784 0.915 0 0 0 178 175 155 255
0.138592 0.0196017 0.915 0 0 0 181 180 158 255
0.138592 0.0164484 0.915 0 0 0 196 197 176 255
0.137835 0.00851825 0.91 0 0 0 213 220 218 255
0.137532 -0.0055819 0.908 0 0 0 204 214 222 255
0.137532 -0.0149695 0.908 0 0 0 222 229 231 255
0.137532 -0.0259217 0.908 0 0 0 163 169 160 255
0.137532 -0.0274863 0.908 0 0 0 168 169 162 255
0.137532 -0.0290509 0.908 0 0 0 187 187 171 255
0.137532 -0.0306155 0.908 0 0 0 186 191 171 255
0.137532 -0.0321802 0.908 0 0 0 184 193 181 255
0.137229 -0.0336704 0.906 0 0 0 188 197 185 255
0.137229 -0.0352316 0.906 0 0 0 190 200 197 255
0.137229 -0.0367927 0.906 0 0 0 193 197 186 255
0.137229 -0.0399151 0.906 0 0 0 170 177 177 255
0.137229 -0.0414762 0.906 0 0 0 181 185 186 255
0.136774 -0.0428949 0.903 0 0 0 179 187 191 255
0.137567 -0.0488468 0.898 0 0 0 192 200 193 255
0.137567 -0.0519416 0.898 0 0 0 189 199 205 255
0.135411 -0.0594126 0.894 0 0 0 141 149 139 255
0.134957 -0.0638192 0.891 0 0 0 143 151 133 255
0.135882 -0.0727032 0.887 0 0 0 173 171 165 255
0.135882 -0.07576 0.887 0 0 0 180 177 180 255
0.135882 -0.0788168 0.887 0 0 0 167 163 173 255
0.135575 -0.0816891 0.885 0 0 0 222 222 197 255
0.135575 -0.083214 0.885 0 0 0 231 228 233 255
0.135575 -0.084739 0.885 0 0 0 226 231 243 255
0.135575 -0.087789 0.885 0 0 0 213 221 216 255
0.135882 -0.0956294 0.887 0 0 0 214 222 217 255
0.135882 -0.0971579 0.887 0 0 0 227 233 226 255
0.135882 -0.0986863 0.887 0 0 0 229 231 235 255
0.135882 -0.100215 0.887 0 0 0 222 229 238 255
0.137013 0.0211784 0.915 0 0 0 179 174 148 255
0.137013 0.0196017 0.915 0 0 0 174 180 171 255
0.137013 0.0164484 0.915 0 0 0 201 202 197 255
0.137835 -0.0228427 0.91 0 0 0 216 221 215 255
0.135216 -0.0444508 0.903 0 0 0 157 168 144 255
0.134917 -0.0459049 0.901 0 0 0 154 165 155 255
0.134467 -0.0488468 0.898 0 0 0 149 159 138 255
0.134467 -0.0519416 0.898 0 0 0 161 167 145 255
0.135714 -0.0549137 0.896 0 0 0 176 184 176 255
0.135714 -0.0564577 0.896 0 0 0 168 175 161 255
0.135714 -0.0580016 0.896 0 0 0 164 170 147 255
0.133868 -0.0594126 0.894 0 0 0 148 159 149 255
0.133419 -0.0638192 0.891 0 0 0 160 159 152 255
0.13312 -0.0713352 0.889 0 0 0 170 176 179 255
0.13282 -0.0727032 0.887 0 0 0 170 177 177 255
0.13282 -0.07576 0.887 0 0 0 179 182 176 255
0.13282 -0.0803453 0.887 0 0 0 142 151 139 255
0.132521 -0.083214 0.885 0 0 0 156 155 121 255
0.132521 -0.084739 0.885 0 0 0 169 181 149 255
0.132521 -0.087789 0.885 0 0 0 158 170 152 255
0.13282 -0.0956294 0.887 0 0 0 201 201 215 255
0.13282 -0.0971579 0.887 0 0 0 198 205 205 255
0.13282 -0.0986863 0.887 0 0 0 201 208 210 255
0.13282 -0.101743 0.887 0 0 0 227 229 230 255
0.137762 0.0308058 0.92 0 0 0 252 227 199 255
0.135434 0.022755 0.915 0 0 0 145 147 119 255
0.135434 0.0211784 0.915 0 0 0 175 170 145 255
0.135434 0.0196017 0.915 0 0 0 177 183 174 255
0.135965 -0.0055819 0.908 0 0 0 217 220 226 255
0.135965 -0.0149695 0.908 0 0 0 223 230 232 255
0.134694 -0.0212747 0.91 0 0 0 194 202 206 255
0.134694 -0.0228427 0.91 0 0 0 202 207 205 255
0.135965 -0.0274863 0.908 0 0 0 168 172 175 255
0.135965 -0.0290509 0.908 0 0 0 174 179 177 255
0.135965 -0.0306155 0.908 0 0 0 173 177 180 255
0.135965 -0.0321802 0.908 0 0 0 176 182 182 255
0.135665 -0.0352316 0.906 0 0 0 180 189 175 255
0.135665 -0.0367927 0.906 0 0 0 176 186 164 255
0.135665 -0.0399151 0.906 0 0 0 167 178 167 255
0.135665 -0.0414762 0.906 0 0 0 169 180 170 255
0.135665 -0.0430374 0.906 0 0 0 168 180 176 255
0.132918 -0.0488468 0.898 0 0 0 147 157 135 255
0.132918 -0.0519416 0.898 0 0 0 161 167 145 255
0.132622 -0.0549137 0.896 0 0 0 179 180 157 255
0.132622 -0.0564577 0.896 0 0 0 169 171 157 255
0.132622 -0.0595455 0.896 0 0 0 158 169 158 255
0.133868 -0.0609531 0.894 0 0 0 155 163 144 255
0.13129 -0.0727032 0.887 0 0 0 164 171 171 255
0.13129 -0.07576 0.887 0 0 0 158 161 155 255
0.13129 -0.0772884 0.887 0 0 0 148 154 145 255
0.130994 -0.083214 0.885 0 0 0 124 122 89 255
0.130994 -0.084739 0.885 0 0 0 138 150 119 255
0.130994 -0.087789 0.885 0 0 0 155 167 150 255
0.13129 -0.0910442 0.887 0 0 0 204 206 194 255
0.13129 -0.0925726 0.887 0 0 0 212 216 219 255
0.13129 -0.0956294 0.887 0 0 0 199 199 212 255
0.13129 -0.0971579 0.887 0 0 0 187 194 194 255
0.13129 -0.0986863 0.887 0 0 0 186 193 195 255
0.13129 -0.100215 0.887 0 0 0 201 208 219 255
0.134586 0.0308058 0.92 0 0 0 170 165 53 255
0.133855 0.0196017 0.915 0 0 0 190 190 190 255
0.132538 0.000675026 0.906 0 0 0 195 223 207 255
0.132538 -0.0055696 0.906 0 0 0 255 255 255 255
0.132538 -0.00713076 0.906 0 0 0 255 255 255 255
0.132831 -0.0118403 0.908 0 0 0 228 236 240 255
0.132831 -0.0134049 0.908 0 0 0 234 240 243 255
0.132831 -0.0149695 0.908 0 0 0 233 239 242 255
0.133123 -0.0212747 0.91 0 0 0 200 207 207 255
0.133123 -0.0228427 0.91 0 0 0 195 209 207 255
0.132831 -0.0290509 0.908 0 0 0 178 183 184 255
0.132831 -0.0306155 0.908 0 0 0 173 181 178 255
0.132831 -0.0321802 0.908 0 0 0 170 177 177 255
0.132538 -0.0336704 0.906 0 0 0 171 176 177 255
0.132538 -0.0352316 0.906 0 0 0 173 177 178 255
0.132538 -0.0367927 0.906 0 0 0 174 181 181 255
0.132538 -0.0399151 0.906 0 0 0 173 181 178 255
0.132538 -0.0414762 0.906 0 0 0 173 177 176 255
0.132538 -0.0430374 0.906 0 0 0 176 176 174 255
0.133658 -0.0444508 0.903 0 0 0 135 146 122 255
0.133658 -0.0460068 0.903 0 0 0 131 142 131 255
0.131368 -0.0488468 0.898 0 0 0 155 156 149 255
0.131368 -0.0519416 0.898 0 0 0 167 167 151 255
0.131368 -0.0550363 0.898 0 0 0 175 174 167 255
0.131075 -0.0564577 0.896 0 0 0 170 171 166 255
0.131075 -0.0595455 0.896 0 0 0 163 166 158 255
0.130783 -0.0609531 0.894 0 0 0 162 170 162 255
0.130783 -0.0624936 0.894 0 0 0 159 174 165 255
0.131882 -0.0638192 0.891 0 0 0 169 168 162 255
0.130344 -0.0653545 0.891 0 0 0 149 151 126 255
0.131586 -0.0667396 0.889 0 0 0 160 161 129 255
0.131586 -0.0698034 0.889 0 0 0 170 175 175 255
0.130051 -0.0728671 0.889 0 0 0 149 163 147 255
0.129466 -0.083214 0.885 0 0 0 137 134 137 255
0.129466 -0.084739 0.885 0 0 0 159 156 161 255
0.129759 -0.0956294 0.887 0 0 0 191 195 200 255
0.129759 -0.0971579 0.887 0 0 0 176 182 182 255
0.119097 -0.0358927 0.923 0 0 0 149 139 129 255
0.133855 0.0243317 0.915 0 0 0 122 122 93 255
0.133855 0.022755 0.915 0 0 0 146 149 107 255
0.133855 0.0211784 0.915 0 0 0 171 173 159 255
0.130975 0.0116031 0.906 0 0 0 181 195 193 255
0.130975 0.0053585 0.906 0 0 0 164 164 121 255
0.130975 0.000675026 0.906 0 0 0 123 151 135 255
0.130975 -0.0055696 0.906 0 0 0 255 255 255 255
0.130975 -0.00713076 0.906 0 0 0 255 255 255 255
0.130975 -0.0102531 0.906 0 0 0 225 235 243 255
0.131264 -0.0149695 0.908 0 0 0 233 239 242 255
0.131553 -0.0228427 0.91 0 0 0 172 186 184 255
0.131553 -0.030683 0.91 0 0 0 180 188 185 255
0.131264 -0.0337448 0.908 0 0 0 178 183 184 255
0.131264 -0.0353094 0.908 0 0 0 180 184 185 255
0.130975 -0.0367927 0.906 0 0 0 180 187 187 255
0.130975 -0.0399151 0.906 0 0 0 180 188 185 255
0.130975 -0.0414762 0.906 0 0 0 184 189 187 255
0.130975 -0.0430374 0.906 0 0 0 191 191 189 255
0.130541 -0.0460068 0.903 0 0 0 175 178 136 255
0.130252 -0.04901 0.901 0 0 0 163 164 157 255
0.129818 -0.0519416 0.898 0 0 0 175 175 159 255
0.129818 -0.0550363 0.898 0 0 0 182 181 174 255
0.129529 -0.0610895 0.896 0 0 0 155 163 155 255
0.128806 -0.0653545 0.891 0 0 0 142 144 119 255
0.128517 -0.0667396 0.889 0 0 0 130 134 94 255
0.128517 -0.0728671 0.889 0 0 0 111 125 109 255
0.129759 -0.07576 0.887 0 0 0 146 150 121 255
0.129759 -0.0772884 0.887 0 0 0 150 149 127 255
0.128228 -0.0895158 0.887 0 0 0 213 211 212 255
0.129759 -0.0910442 0.887 0 0 0 210 209 212 255
0.129759 -0.0986863 0.887 0 0 0 173 184 173 255
0.129759 -0.100215 0.887 0 0 0 195 204 215 255
0.117504 -0.0343022 0.923 0 0 0 210 209 161 255
0.117504 -0.0374831 0.923 0 0 0 255 255 242 255
0.237784 -0.0849197 0.92 0 0 0 223 225 227 255
0.13184 0.0356776 0.923 0 0 0 236 225 192 255
0.130697 0.0243317 0.915 0 0 0 201 203 195 255
0.130697 0.022755 0.915 0 0 0 201 202 199 255
0.130697 0.0211784 0.915 0 0 0 201 206 200 255
0.129411 0.0116031 0.906 0 0 0 176 191 127 255
0.128983 0.00845273 0.903 0 0 0 163 168 126 255
0.128983 0.00689674 0.903 0 0 0 159 156 157 255
0.128983 0.00222878 0.903 0 0 0 144 157 193 255
0.129411 -0.0055696 0.906 0 0 0 255 255 255 255
0.129411 -0.00713076 0.906 0 0 0 255 255 255 255
0.129411 -0.0102531 0.906 0 0 0 233 243 251 255
0.130411 -0.022918 0.913 0 0 0 170 186 190 255
0.131987 -0.0244913 0.913 0 0 0 174 185 184 255
0.131987 -0.0260645 0.913 0 0 0 180 188 185 255
0.129983 -0.0291149 0.91 0 0 0 180 189 179 255
0.129983 -0.030683 0.91 0 0 0 183 193 199 255
0.129983 -0.032251 0.91 0 0 0 173 188 183 255
0.129411 -0.0414762 0.906 0 0 0 181 191 183 255
0.129411 -0.0430374 0.906 0 0 0 188 195 179 255
0.129411 -0.0445985 0.906 0 0 0 190 188 189 255
0.128697 -0.0505626 0.901 0 0 0 176 177 158 255
0.128697 -0.0536676 0.901 0 0 0 176 177 158 255
0.129818 -0.0565837 0.898 0 0 0 175 175 171 255
0.128269 -0.0596784 0.898 0 0 0 161 163 149 255
0.127697 -0.067115 0.894 0 0 0 130 135 119 255
0.127269 -0.0684251 0.891 0 0 0 121 127 121 255
0.126983 -0.0728671 0.889 0 0 0 126 127 122 255
0.126983 -0.0759308 0.889 0 0 0 153 151 136 255
0.128836 0.0211321 0.913 0 0 0 206 212 206 255
0.127425 0.0131207 0.903 0 0 0 152 161 131 255
0.127142 0.00843401 0.901 0 0 0 204 209 166 255
0.127848 -0.0055696 0.906 0 0 0 255 255 255 255
0.129697 -0.0149695 0.908 0 0 0 230 239 240 255
0.128836 -0.022918 0.913 0 0 0 184 200 204 255
0.128836 -0.0244913 0.913 0 0 0 174 188 186 255
0.128836 -0.0276377 0.913 0 0 0 149 163 158 255
0.129697 -0.0337448 0.908 0 0 0 175 186 176 255
0.129697 -0.0353094 0.908 0 0 0 181 186 182 255
0.129697 -0.036874 0.908 0 0 0 179 189 172 255
0.12813 -0.0431324 0.908 0 0 0 149 156 140 255
0.127142 -0.0567727 0.901 0 0 0 146 149 129 255
0.127142 -0.0598778 0.901 0 0 0 143 146 131 255
0.126719 -0.0612258 0.898 0 0 0 149 153 129 255
0.126154 -0.0717364 0.894 0 0 0 162 167 167 255
0.125731 -0.073031 0.891 0 0 0 166 167 162 255
0.125731 -0.0745663 0.891 0 0 0 165 165 167 255
0.125731 -0.077637 0.891 0 0 0 160 159 152 255
0.125731 -0.0914548 0.891 0 0 0 107 118 123 255
0.125731 -0.097596 0.891 0 0 0 114 137 152 255
0.125731 -0.0991313 0.891 0 0 0 169 172 151 255
0.232514 -0.0815714 0.918 0 0 0 220 225 226 255
0.128933 0.0373488 0.925 0 0 0 242 222 172 255
0.129823 0.0355616 0.92 0 0 0 236 225 192 255
0.129823 0.0339764 0.92 0 0 0 201 173 125 255
0.12726 0.0211321 0.913 0 0 0 202 213 202 255
0.126563 0.0178872 0.908 0 0 0 161 174 131 255
0.127848 -0.00713076 0.906 0 0 0 255 255 255 255
0.127848 -0.0102531 0.906 0 0 0 243 254 255 255
0.126563 -0.0118403 0.908 0 0 0 242 248 253 255
0.126563 -0.0134049 0.908 0 0 0 223 231 239 255
0.126563 -0.0149695 0.908 0 0 0 225 234 236 255
0.12726 -0.0213448 0.913 0 0 0 211 221 229 255
0.12726 -0.022918 0.913 0 0 0 203 212 216 255
0.12726 -0.0244913 0.913 0 0 0 187 195 190 255
0.12726 -0.0276377 0.913 0 0 0 145 160 153 255
0.12726 -0.0292109 0.913 0 0 0 151 166 157 255
0.12726 -0.0323574 0.913 0 0 0 111 158 149 255
0.126842 -0.0338191 0.91 0 0 0 104 147 144 255
0.126842 -0.0353871 0.91 0 0 0 142 144 89 255
0.126842 -0.0369552 0.91 0 0 0 131 149 106 255
0.126563 -0.044697 0.908 0 0 0 130 143 75 255
0.126284 -0.0508432 0.906 0 0 0 98 96 35 255
0.126284 -0.0539655 0.906 0 0 0 101 108 26 255
0.124612 -0.0732769 0.894 0 0 0 157 180 154 255
0.124612 -0.0748174 0.894 0 0 0 155 171 113 255
0.125731 -0.0807076 0.891 0 0 0 152 160 153 255
0.124194 -0.0899194 0.891 0 0 0 96 98 59 255
0.124612 -0.0917627 0.894 0 0 0 100 107 66 255
0.125731 -0.0945254 0.891 0 0 0 103 123 126 255
0.124612 -0.0979246 0.894 0 0 0 122 125 117 255
0.124612 -0.0994651 0.894 0 0 0 190 191 184 255
0.126648 0.0339764 0.92 0 0 0 151 138 79 255
0.125271 0.0210626 0.91 0 0 0 173 184 173 255
0.125866 0.0131207 0.903 0 0 0 157 159 147 255
0.124721 -0.00713076 0.906 0 0 0 255 255 255 255
0.124721 -0.0118142 0.906 0 0 0 244 250 255 255
0.124996 -0.0134049 0.908 0 0 0 224 232 241 255
0.125684 -0.0339306 0.913 0 0 0 27 71 67 255
0.124996 -0.044697 0.908 0 0 0 61 75 6 255
0.124996 -0.0478262 0.908 0 0 0 41 58 0 255
0.124721 -0.0508432 0.906 0 0 0 74 73 12 255
0.124721 -0.0539655 0.906 0 0 0 60 66 0 255
0.124996 -0.0556492 0.908 0 0 0 65 72 0 255
0.124996 -0.0572138 0.908 0 0 0 66 73 0 255
0.124308 -0.0631227 0.903 0 0 0 83 83 26 255
0.123069 -0.0794388 0.894 0 0 0 66 90 70 255
0.123069 -0.0886817 0.894 0 0 0 71 83 49 255
0.228597 -0.0828815 0.915 0 0 0 230 231 240 255
-0.051058 0.0228296 0.918 0 0 0 163 169 172 255
0.12506 0.0371469 0.92 0 0 0 235 203 136 255
0.123429 0.0210164 0.908 0 0 0 164 186 124 255
0.12275 0.0146767 0.903 0 0 0 165 173 168 255
0.12275 0.0131207 0.903 0 0 0 191 197 190 255
0.12275 -0.00399517 0.903 0 0 0 112 111 116 255
0.123157 -0.0055696 0.906 0 0 0 122 132 113 255
0.123157 -0.0118142 0.906 0 0 0 236 243 241 255
0.124381 -0.0245449 0.915 0 0 0 209 218 217 255
0.12596 -0.0276982 0.915 0 0 0 150 165 157 255
0.124381 -0.0292749 0.915 0 0 0 112 129 125 255
0.124381 -0.0308516 0.915 0 0 0 63 89 101 255
0.124381 -0.0324282 0.915 0 0 0 50 62 58 255
0.124109 -0.0402234 0.913 0 0 0 97 93 76 255
0.123429 -0.044697 0.908 0 0 0 87 58 15 255
0.123429 -0.0478262 0.908 0 0 0 61 50 20 255
0.123157 -0.049282 0.906 0 0 0 57 47 26 255
0.123157 -0.0508432 0.906 0 0 0 71 63 41 255
0.123157 -0.0539655 0.906 0 0 0 71 63 39 255
0.123429 -0.0556492 0.908 0 0 0 69 61 36 255
0.123429 -0.0572138 0.908 0 0 0 70 65 40 255
0.12275 -0.0646787 0.903 0 0 0 72 67 41 255
0.123204 0.038648 0.918 0 0 0 251 229 168 255
0.123204 0.0370662 0.918 0 0 0 220 188 121 255
0.121191 0.0146767 0.903 0 0 0 208 216 211 255
0.12052 0.00840593 0.898 0 0 0 174 183 173 255
0.122802 -0.0213916 0.915 0 0 0 197 209 205 255
0.122802 -0.0229682 0.915 0 0 0 202 213 212 255
0.122802 -0.0245449 0.915 0 0 0 205 215 214 255
0.122802 -0.0276982 0.915 0 0 0 176 191 179 255
0.122802 -0.0292749 0.915 0 0 0 111 128 124 255
0.123204 -0.0309527 0.918 0 0 0 82 108 119 255
0.123204 -0.0325346 0.918 0 0 0 107 119 115 255
0.123204 -0.0341164 0.918 0 0 0 98 106 124 255
0.122533 -0.0417967 0.913 0 0 0 138 89 39 255
0.123701 -0.0432274 0.91 0 0 0 87 75 38 255
0.121862 -0.0587784 0.908 0 0 0 207 200 175 255
0.121191 -0.0646787 0.903 0 0 0 186 181 155 255
0.12052 -0.0813416 0.898 0 0 0 129 120 92 255
0.12052 -0.082889 0.898 0 0 0 121 124 96 255
0.12052 -0.0890785 0.898 0 0 0 191 185 139 255
0.227018 -0.0828815 0.915 0 0 0 243 244 253 255
0.121862 0.022581 0.908 0 0 0 127 131 146 255
0.119633 0.0146767 0.903 0 0 0 214 220 216 255
0.118971 0.00840593 0.898 0 0 0 185 192 192 255
0.119368 -0.000881241 0.901 0 0 0 186 193 195 255
0.121594 -0.0055696 0.906 0 0 0 213 223 204 255
0.121594 -0.0118142 0.906 0 0 0 227 234 232 255
0.12056 -0.0165705 0.91 0 0 0 225 227 229 255
0.120958 -0.0197716 0.913 0 0 0 212 221 223 255
0.121223 -0.0213916 0.915 0 0 0 212 217 225 255
0.121223 -0.0229682 0.915 0 0 0 210 218 227 255
0.121223 -0.0245449 0.915 0 0 0 212 221 223 255
0.12162 -0.0325346 0.918 0 0 0 123 125 113 255
0.12162 -0.0356982 0.918 0 0 0 121 97 53 255
0.120958 -0.0433699 0.913 0 0 0 183 173 161 255
0.120958 -0.0465163 0.913 0 0 0 213 204 191 255
0.121862 -0.0478262 0.908 0 0 0 189 178 148 255
0.121862 -0.0493908 0.908 0 0 0 195 185 163 255
0.121862 -0.05252 0.908 0 0 0 204 196 171 255
0.121862 -0.0556492 0.908 0 0 0 209 202 177 255
0.12056 -0.0557718 0.91 0 0 0 248 245 234 255
0.12056 -0.0573398 0.91 0 0 0 246 244 233 255
0.12056 -0.0589079 0.91 0 0 0 240 237 226 255
0.120295 -0.0634722 0.908 0 0 0 235 232 222 255
0.12003 -0.0648936 0.906 0 0 0 226 222 214 255
0.118971 -0.0751522 0.898 0 0 0 177 173 165 255
0.118971 -0.0797943 0.898 0 0 0 167 162 148 255
0.118971 -0.0813416 0.898 0 0 0 175 170 158 255
0.119368 -0.0831659 0.901 0 0 0 179 175 163 255
0.118971 -0.0890785 0.898 0 0 0 220 214 207 255
0.118971 -0.0937206 0.898 0 0 0 253 250 242 255
0.225438 -0.0828815 0.915 0 0 0 238 244 251 255
0.118728 0.022581 0.908 0 0 0 135 137 84 255
0.117421 0.00840593 0.898 0 0 0 204 210 210 255
0.118467 -0.0055696 0.906 0 0 0 241 248 248 255
0.118467 -0.00869192 0.906 0 0 0 219 233 245 255
0.118467 -0.0102531 0.906 0 0 0 248 254 255 255
0.118728 -0.0134049 0.908 0 0 0 251 255 255 255
0.118728 -0.0149695 0.908 0 0 0 245 252 254 255
0.119644 -0.0229682 0.915 0 0 0 224 232 241 255
0.120036 -0.0246254 0.918 0 0 0 225 234 236 255
0.12162 -0.0277891 0.918 0 0 0 179 191 187 255
0.12162 -0.0293709 0.918 0 0 0 116 122 131 255
0.12162 -0.0309527 0.918 0 0 0 101 130 148 255
0.120036 -0.0372801 0.918 0 0 0 174 165 84 255
0.120036 -0.0388619 0.918 0 0 0 216 211 174 255
0.120036 -0.0404437 0.918 0 0 0 255 250 171 255
0.120297 -0.0437024 0.92 0 0 0 255 255 247 255
0.120951 -0.0455338 0.925 0 0 0 255 255 244 255
0.120951 -0.0519094 0.925 0 0 0 255 250 240 255
0.118728 -0.05252 0.908 0 0 0 254 249 237 255
0.119382 -0.0591021 0.913 0 0 0 252 249 239 255
0.11899 -0.0604759 0.91 0 0 0 253 247 238 255
0.118728 -0.0634722 0.908 0 0 0 255 254 244 255
0.118728 -0.0650368 0.908 0 0 0 255 254 246 255
0.118467 -0.0680159 0.906 0 0 0 255 253 243 255
0.118075 -0.0724586 0.903 0 0 0 255 255 245 255
0.117421 -0.0797943 0.898 0 0 0 255 253 238 255
0.117813 -0.0831659 0.901 0 0 0 255 255 243 255
0.117813 -0.0847185 0.901 0 0 0 255 254 242 255
0.223859 -0.0828815 0.915 0 0 0 241 246 254 255
0.118065 0.0353684 0.915 0 0 0 126 131 4 255
0.117813 0.0146442 0.901 0 0 0 212 217 213 255
0.117813 0.0115391 0.901 0 0 0 202 207 205 255
0.117813 -0.000881241 0.901 0 0 0 201 208 210 255
0.116903 -0.0055696 0.906 0 0 0 236 244 250 255
0.116903 -0.00869192 0.906 0 0 0 229 237 241 255
0.116903 -0.0102531 0.906 0 0 0 250 255 255 255
0.119644 -0.0198149 0.915 0 0 0 217 226 228 255
0.119644 -0.0213916 0.915 0 0 0 227 233 240 255
0.118452 -0.0230436 0.918 0 0 0 238 240 244 255
0.118452 -0.0246254 0.918 0 0 0 235 237 236 255
0.118452 -0.0277891 0.918 0 0 0 213 219 215 255
0.118452 -0.0293709 0.918 0 0 0 146 151 149 255
0.11871 -0.0373613 0.92 0 0 0 198 188 176 255
0.12 -0.05219 0.93 0 0 0 251 249 236 255
0.119355 -0.0535033 0.925 0 0 0 250 248 235 255
0.118452 -0.0610076 0.918 0 0 0 249 244 234 255
0.117161 -0.0634722 0.908 0 0 0 248 248 237 255
0.117161 -0.0650368 0.908 0 0 0 250 249 240 255
0.116516 -0.0693467 0.903 0 0 0 250 249 240 255
0.116516 -0.0709026 0.903 0 0 0 251 249 243 255
0.117813 -0.0816134 0.901 0 0 0 255 254 242 255
0.220701 -0.0828815 0.915 0 0 0 241 246 254 255
0.116486 0.0306384 0.915 0 0 0 238 231 229 255
0.117807 0.0289982 0.913 0 0 0 228 222 217 255
0.114958 0.0193446 0.903 0 0 0 202 197 181 255
0.114703 0.0146442 0.901 0 0 0 208 215 213 255
0.114321 0.013048 0.898 0 0 0 209 214 208 255
0.114321 0.0115007 0.898 0 0 0 208 213 207 255
0.115871 0.00685855 0.898 0 0 0 205 224 188 255
0.114703 -0.000881241 0.901 0 0 0 235 246 249 255
0.11534 -0.0055696 0.906 0 0 0 222 230 236 255
0.11534 -0.00869192 0.906 0 0 0 223 231 235 255
0.11534 -0.0102531 0.906 0 0 0 252 255 255 255
0.116486 -0.0198149 0.915 0 0 0 221 227 232 255
0.116486 -0.0213916 0.915 0 0 0 235 241 244 255
0.116868 -0.0230436 0.918 0 0 0 248 249 253 255
0.116868 -0.0246254 0.918 0 0 0 244 246 246 255
0.116868 -0.0277891 0.918 0 0 0 227 233 228 255
0.116868 -0.0293709 0.918 0 0 0 189 194 192 255
0.117504 -0.0327118 0.923 0 0 0 153 173 148 255
0.118395 -0.0537925 0.93 0 0 0 246 244 231 255
0.118141 -0.0552759 0.928 0 0 0 244 243 232 255
0.118395 -0.0569975 0.93 0 0 0 244 243 232 255
0.115595 -0.0650368 0.908 0 0 0 244 243 234 255
0.115595 -0.0666014 0.908 0 0 0 245 242 234 255
0.114958 -0.0677907 0.903 0 0 0 243 242 233 255
0.114958 -0.0693467 0.903 0 0 0 241 241 232 255
0.11534 -0.0726994 0.906 0 0 0 240 239 231 255
0.114703 -0.0785083 0.901 0 0 0 241 241 232 255
0.114703 -0.0800609 0.901 0 0 0 241 241 230 255
0.113812 -0.0917627 0.894 0 0 0 241 241 232 255
0.114907 0.041675 0.915 0 0 0 255 238 49 255
0.114907 0.0385217 0.915 0 0 0 220 208 55 255
0.115595 0.0257102 0.908 0 0 0 142 134 58 255
0.1134 0.0193446 0.903 0 0 0 187 195 188 255
0.113148 0.0161967 0.901 0 0 0 208 220 200 255
0.112772 0.013048 0.898 0 0 0 208 215 217 255
0.112772 0.0115007 0.898 0 0 0 207 214 212 255
0.112772 0.00685855 0.898 0 0 0 179 198 176 255
0.113148 -0.000881241 0.901 0 0 0 240 249 251 255
0.114907 -0.0198149 0.915 0 0 0 207 219 219 255
0.114907 -0.0213916 0.915 0 0 0 228 236 227 255
0.115283 -0.0230436 0.918 0 0 0 245 250 248 255
0.115283 -0.0246254 0.918 0 0 0 245 250 248 255
0.115283 -0.0262072 0.918 0 0 0 228 233 232 255
0.115535 -0.0278496 0.92 0 0 0 229 232 228 255
0.116162 -0.0327826 0.925 0 0 0 188 197 196 255
0.117759 -0.0359704 0.925 0 0 0 255 252 242 255
0.116162 -0.0375643 0.925 0 0 0 255 255 238 255
0.117759 -0.0391582 0.925 0 0 0 255 254 241 255
0.117167 -0.0620044 0.933 0 0 0 245 242 232 255
0.116539 -0.0632712 0.928 0 0 0 246 246 234 255
0.1134 -0.0677907 0.903 0 0 0 242 243 238 255
0.1134 -0.0693467 0.903 0 0 0 243 241 235 255
0.113776 -0.0805051 0.906 0 0 0 243 242 229 255
0.1134 -0.0849065 0.903 0 0 0 241 240 234 255
0.114279 -0.0887008 0.91 0 0 0 243 241 235 255
0.219122 -0.0813049 0.915 0 0 0 214 221 230 255
0.219122 -0.0828815 0.915 0 0 0 238 247 251 255
0.113328 0.041675 0.915 0 0 0 255 239 50 255
0.113328 0.0385217 0.915 0 0 0 209 198 45 255
0.113328 0.0353684 0.915 0 0 0 104 127 42 255
0.11308 0.0305714 0.913 0 0 0 218 203 201 255
0.111222 0.013048 0.898 0 0 0 206 212 215 255
0.111222 0.0115007 0.898 0 0 0 205 212 210 255
0.111222 0.00685855 0.898 0 0 0 183 203 180 255
0.111222 0.00531118 0.898 0 0 0 183 206 203 255
0.113776 -0.0055696 0.906 0 0 0 221 228 237 255
0.113776 -0.00869192 0.906 0 0 0 221 228 237 255
0.113776 -0.0102531 0.906 0 0 0 252 255 255 255
0.113328 -0.0198149 0.915 0 0 0 203 214 215 255
0.115911 -0.0311213 0.923 0 0 0 171 178 176 255
0.114566 -0.0327826 0.925 0 0 0 207 216 215 255
0.114566 -0.0359704 0.925 0 0 0 255 252 247 255
0.0904259 -0.02635 0.923 0 0 0 221 228 226 255
0.217543 -0.0813049 0.915 0 0 0 216 224 232 255
0.217543 -0.0828815 0.915 0 0 0 239 248 252 255
0.111504 0.0305714 0.913 0 0 0 192 188 171 255
0.111841 0.0193446 0.903 0 0 0 187 195 188 255
0.111841 -0.00399517 0.903 0 0 0 232 237 244 255
0.110649 -0.0055696 0.906 0 0 0 219 228 232 255
0.110649 -0.00713076 0.906 0 0 0 224 228 231 255
0.113699 -0.0230436 0.918 0 0 0 238 243 241 255
0.113699 -0.0246254 0.918 0 0 0 238 243 241 255
0.113947 -0.0278496 0.92 0 0 0 229 232 228 255
0.11297 -0.0311887 0.925 0 0 0 173 182 172 255
0.11297 -0.0327826 0.925 0 0 0 234 234 225 255
0.215964 -0.0828815 0.915 0 0 0 243 250 250 255
0.111749 0.041675 0.915 0 0 0 255 243 44 255
0.111749 0.0385217 0.915 0 0 0 186 175 101 255
0.111749 0.0353684 0.915 0 0 0 108 121 124 255
0.108725 0.0193446 0.903 0 0 0 199 212 205 255
0.108725 0.0177887 0.903 0 0 0 171 192 189 255
0.109672 0.013048 0.898 0 0 0 206 211 210 255
0.109672 0.0115007 0.898 0 0 0 198 210 208 255
0.109672 0.00840593 0.898 0 0 0 191 197 202 255
0.109672 0.00685855 0.898 0 0 0 193 200 209 255
0.109672 0.00531118 0.898 0 0 0 228 232 240 255
0.108484 0.00377638 0.901 0 0 0 245 251 255 255
0.108484 -0.000881241 0.901 0 0 0 247 253 255 255
0.108725 -0.00555116 0.903 0 0 0 222 230 234 255
0.109086 -0.00713076 0.906 0 0 0 228 232 236 255
0.110531 -0.0246254 0.918 0 0 0 233 237 240 255
0.110531 -0.0262072 0.918 0 0 0 224 235 236 255
0.110772 -0.0278496 0.92 0 0 0 227 232 230 255
0.110772 -0.0294349 0.92 0 0 0 185 188 182 255
0.111374 -0.0311887 0.925 0 0 0 179 188 178 255
0.111976 -0.0345624 0.93 0 0 0 252 251 233 255
0.108591 0.0400984 0.915 0 0 0 193 170 5 255
0.108591 0.0385217 0.915 0 0 0 164 155 0 255
0.108591 0.0353684 0.915 0 0 0 162 165 175 255
0.109929 0.0321446 0.913 0 0 0 231 228 231 255
0.10776 0.0272748 0.908 0 0 0 158 143 82 255
0.107166 0.0224566 0.903 0 0 0 173 178 161 255
0.107166 0.0193446 0.903 0 0 0 200 210 200 255
0.106573 0.013048 0.898 0 0 0 204 208 200 255
0.106573 0.0115007 0.898 0 0 0 200 208 201 255
0.106573 0.00840593 0.898 0 0 0 174 199 184 255
0.106573 0.00531118 0.898 0 0 0 244 246 246 255
0.106929 -0.000881241 0.901 0 0 0 246 255 255 255
0.107166 -0.00555116 0.903 0 0 0 202 224 226 255
0.108591 -0.0198149 0.915 0 0 0 207 219 215 255
0.108591 -0.0213916 0.915 0 0 0 213 228 220 255
0.108591 -0.0229682 0.915 0 0 0 224 240 228 255
0.108947 -0.0246254 0.918 0 0 0 243 251 246 255
0.108947 -0.0262072 0.918 0 0 0 239 244 242 255
0.109184 -0.0278496 0.92 0 0 0 223 231 224 255
0.10954 -0.0295309 0.923 0 0 0 176 190 185 255
0.107011 0.0400984 0.915 0 0 0 171 148 0 255
0.107011 0.0385217 0.915 0 0 0 151 142 0 255
0.107011 0.0353684 0.915 0 0 0 175 178 188 255
0.106778 0.0337178 0.913 0 0 0 220 222 208 255
0.105374 0.0193018 0.901 0 0 0 198 209 199 255
0.105374 0.0177493 0.901 0 0 0 189 204 197 255
0.105023 0.013048 0.898 0 0 0 203 207 199 255
0.105023 0.0115007 0.898 0 0 0 205 213 206 255
0.105023 0.00840593 0.898 0 0 0 127 152 137 255
0.105374 0.00222384 0.901 0 0 0 203 218 222 255
0.105374 -0.000881241 0.901 0 0 0 247 255 255 255
0.10776 -0.0134049 0.908 0 0 0 201 209 213 255
0.106427 -0.0165705 0.91 0 0 0 255 255 255 255
0.106778 -0.0197716 0.913 0 0 0 202 214 210 255
0.107362 -0.0246254 0.918 0 0 0 232 239 234 255
0.107362 -0.0262072 0.918 0 0 0 240 245 243 255
0.0186469 -0.00406154 0.918 0 0 0 207 214 214 255
-0.0827421 0.029157 0.918 0 0 0 173 181 174 255
0.105432 0.0385217 0.915 0 0 0 118 108 2 255
0.105432 0.0353684 0.915 0 0 0 204 200 172 255
0.105202 0.0337178 0.913 0 0 0 218 219 200 255
0.104856 0.032039 0.91 0 0 0 216 210 191 255
0.104626 0.030404 0.908 0 0 0 136 126 77 255
0.10405 0.0240126 0.903 0 0 0 139 160 130 255
0.105608 0.0224566 0.903 0 0 0 165 170 152 255
0.103474 0.0115007 0.898 0 0 0 224 206 189 255
0.103474 0.0099533 0.898 0 0 0 191 208 145 255
0.105608 -0.00555116 0.903 0 0 0 160 182 184 255
0.104626 -0.0134049 0.908 0 0 0 205 219 216 255
0.105202 -0.0197716 0.913 0 0 0 204 216 212 255
0.107596 -0.0278496 0.92 0 0 0 233 241 233 255
0.107947 -0.0295309 0.923 0 0 0 186 200 196 255
-0.0859105 0.029157 0.918 0 0 0 176 183 180 255
0.102491 0.0240126 0.903 0 0 0 144 164 135 255
0.102491 0.0224566 0.903 0 0 0 176 180 183 255
0.103819 0.0177493 0.901 0 0 0 206 212 208 255
0.103819 -0.000881241 0.901 0 0 0 248 255 253 255
0.103059 -0.0134049 0.908 0 0 0 191 205 202 255
0.105778 -0.0246254 0.918 0 0 0 229 234 244 255
0.105778 -0.0262072 0.918 0 0 0 244 244 248 255
0.104421 -0.0278496 0.92 0 0 0 230 238 235 255
0.104761 -0.0295309 0.923 0 0 0 202 216 214 255
-0.0633845 0.0400107 0.913 0 0 0 230 220 183 255
-0.0890789 0.0354843 0.918 0 0 0 128 138 87 255
-0.0890789 0.0339025 0.918 0 0 0 168 167 129 255
-0.0890789 0.029157 0.918 0 0 0 187 192 186 255
-0.0890789 0.0275752 0.918 0 0 0 172 180 173 255
0.10261 0.0433935 0.918 0 0 0 255 234 57 255
0.10261 0.0418117 0.918 0 0 0 255 235 32 255
0.103853 0.0385217 0.915 0 0 0 137 127 21 255
0.103853 0.036945 0.915 0 0 0 184 183 138 255
0.103626 0.0337178 0.913 0 0 0 217 218 199 255
0.126284 -0.0555266 0.906 0 0 0 112 118 37 255
0.101492 0.030404 0.908 0 0 0 133 123 88 255
0.100933 0.0255686 0.903 0 0 0 122 127 98 255
0.100933 0.0224566 0.903 0 0 0 192 196 170 255
0.10071 0.0208543 0.901 0 0 0 193 202 188 255
0.101924 0.013048 0.898 0 0 0 208 209 204 255
0.101924 0.0115007 0.898 0 0 0 211 193 177 255
0.101924 0.0099533 0.898 0 0 0 172 189 127 255
0.10071 -0.000881241 0.901 0 0 0 252 255 255 255
0.10071 -0.00243378 0.901 0 0 0 247 255 255 255
0.100933 -0.00555116 0.903 0 0 0 140 162 179 255
0.101492 -0.0134049 0.908 0 0 0 197 206 208 255
0.101492 -0.0149695 0.908 0 0 0 223 231 239 255
0.102274 -0.0245449 0.915 0 0 0 255 255 255 255
0.10261 -0.0277891 0.918 0 0 0 232 236 230 255
0.0760905 -0.0231691 0.923 0 0 0 179 177 193 255
-0.0649601 0.0400107 0.913 0 0 0 230 221 177 255
-0.0906631 0.0354843 0.918 0 0 0 134 140 143 255
-0.0906631 0.0339025 0.918 0 0 0 150 153 136 255
-0.0906631 0.029157 0.918 0 0 0 187 195 192 255
-0.0906631 0.0275752 0.918 0 0 0 170 177 177 255
0.100695 0.0385217 0.915 0 0 0 148 137 48 255
0.100695 0.036945 0.915 0 0 0 190 185 145 255
0.125587 -0.0614304 0.901 0 0 0 128 137 95 255
0.0993748 0.0255686 0.903 0 0 0 121 126 97 255
0.0988245 0.013048 0.898 0 0 0 200 207 209 255
0.0988245 0.0115007 0.898 0 0 0 120 134 105 255
0.0988245 0.00840593 0.898 0 0 0 159 200 184 255
0.0991547 -0.00243378 0.901 0 0 0 241 252 253 255
0.0993748 -0.00399517 0.903 0 0 0 167 202 208 255
0.0993748 -0.00555116 0.903 0 0 0 177 199 217 255
0.101716 -0.0165705 0.91 0 0 0 255 255 255 255
0.101716 -0.0181386 0.91 0 0 0 255 255 255 255
0.100695 -0.0229682 0.915 0 0 0 255 255 255 255
0.100695 -0.0245449 0.915 0 0 0 255 255 255 255
0.101026 -0.0277891 0.918 0 0 0 230 233 228 255
0.0744976 -0.0231691 0.923 0 0 0 181 183 187 255
0.12924 -0.0640341 0.894 0 0 0 159 165 156 255
-0.0938315 0.0354843 0.918 0 0 0 214 210 195 255
-0.0938315 0.0339025 0.918 0 0 0 163 164 148 255
0.0991164 0.0400984 0.915 0 0 0 143 142 0 255
0.0988997 0.0384375 0.913 0 0 0 139 137 51 255
0.0988997 0.0368643 0.913 0 0 0 193 187 164 255
0.099925 0.030404 0.908 0 0 0 137 127 91 255
0.125866 -0.0584547 0.903 0 0 0 126 139 87 255
0.0997049 0.0272147 0.906 0 0 0 130 121 76 255
0.0972749 0.0115007 0.898 0 0 0 86 142 94 255
0.099925 -0.0134049 0.908 0 0 0 228 236 238 255
0.099925 -0.0149695 0.908 0 0 0 242 249 255 255
0.0985747 -0.0165705 0.91 0 0 0 255 255 255 255
0.0985747 -0.0181386 0.91 0 0 0 255 255 255 255
0.0994413 -0.0277891 0.918 0 0 0 223 227 226 255
0.153064 -0.053489 0.898 0 0 0 179 190 177 255
-0.0954157 0.0339025 0.918 0 0 0 206 207 191 255
0.0975373 0.0400984 0.915 0 0 0 130 129 0 255
0.0973241 0.0384375 0.913 0 0 0 135 133 47 255
0.0973241 0.0368643 0.913 0 0 0 196 191 168 255
0.0967911 0.0288394 0.908 0 0 0 134 136 83 255
0.0978165 0.0240126 0.903 0 0 0 185 184 159 255
0.0975998 -0.00243378 0.901 0 0 0 233 242 244 255
0.0978165 -0.00555116 0.903 0 0 0 202 214 237 255
0.0967911 -0.0118403 0.908 0 0 0 209 216 227 255
0.0967911 -0.0134049 0.908 0 0 0 253 255 255 255
0.0967911 -0.0149695 0.908 0 0 0 255 255 255 255
0.0970043 -0.0165705 0.91 0 0 0 255 255 255 255
0.0970043 -0.0181386 0.91 0 0 0 255 255 255 255
0.0978571 -0.0277891 0.918 0 0 0 225 230 228 255
-0.0890789 0.0307388 0.918 0 0 0 173 184 173 255
0.0946998 0.0240126 0.903 0 0 0 178 184 161 255
0.0944901 0.0224069 0.901 0 0 0 186 187 164 255
0.0957252 0.0161428 0.898 0 0 0 181 188 174 255
0.0957252 0.0145954 0.898 0 0 0 187 196 182 255
0.0944901 -0.00243378 0.901 0 0 0 228 238 246 255
0.0946998 -0.00555116 0.903 0 0 0 232 236 237 255
0.0952242 -0.0118403 0.908 0 0 0 188 216 224 255
