ply
format ascii 1.0
element vertex 1164
property float x
property float y
property float z
property float normal_x
property float normal_y
property float normal_z
property uchar red
property uchar green
property uchar blue
property uchar alpha
end_header
-0.540512 0.23656 1.232 0 0 0 0 0 0 255
-0.56189 0.203221 1.223 0 0 0 0 0 0 255
-0.596083 0.327477 1.255 0 0 0 80 77 80 255
-0.559646 0.225945 1.232 0 0 0 0 0 0 255
-0.557948 0.187852 1.219 0 0 0 0 0 1 255
-0.563596 0.250106 1.236 0 0 0 0 0 0 255
-0.563596 0.247977 1.236 0 0 0 0 0 0 255
-0.571997 0.296979 1.245 0 0 0 0 6 2 255
-0.567928 0.316664 1.255 0 0 0 0 0 1 255
-0.58508 0.321865 1.25 0 0 0 6 0 38 255
-0.578609 0.319711 1.25 0 0 0 0 8 12 255
-0.564606 0.388336 1.292 0 0 0 34 36 22 255
-0.562155 0.196254 1.219 0 0 0 0 0 5 255
-0.559492 0.208114 1.227 0 0 0 0 0 0 255
-0.578609 0.313249 1.25 0 0 0 6 3 20 255
-0.552931 0.237328 1.236 0 0 0 0 0 0 255
-0.576451 0.313249 1.25 0 0 0 5 2 19 255
-0.587237 0.321865 1.25 0 0 0 5 0 37 255
-0.549016 0.211085 1.232 0 0 0 0 0 0 255
-0.549016 0.208962 1.232 0 0 0 0 0 0 255
-0.551637 0.17735 1.219 0 0 0 0 0 0 255
-0.582775 0.345876 1.259 0 0 0 49 51 78 255
-0.571743 0.374577 1.283 0 0 0 0 0 13 255
-0.562893 0.338755 1.273 0 0 0 0 0 0 255
-0.562893 0.336561 1.273 0 0 0 0 0 0 255
-0.562893 0.334367 1.273 0 0 0 0 0 0 255
-0.538061 0.0971796 1.189 0 0 0 0 0 0 255
-0.566363 0.196254 1.219 0 0 0 3 2 10 255
-0.572301 0.281056 1.241 0 0 0 0 0 6 255
-0.56509 0.338755 1.273 0 0 0 0 0 0 255
-0.540113 0.0889844 1.189 0 0 0 0 0 0 255
-0.574261 0.271404 1.236 0 0 0 2 1 8 255
-0.582775 0.348046 1.259 0 0 0 69 76 90 255
-0.542165 0.0889844 1.189 0 0 0 0 0 0 255
-0.567287 0.354109 1.273 0 0 0 0 0 0 255
-0.582775 0.341537 1.259 0 0 0 0 0 18 255
-0.553268 0.208962 1.232 0 0 0 0 0 0 255
-0.576394 0.275664 1.236 0 0 0 5 3 11 255
-0.576394 0.271404 1.236 0 0 0 5 3 11 255
-0.559194 0.261555 1.25 0 0 0 0 0 0 255
-0.55403 0.330362 1.283 0 0 0 0 0 0 255
-0.555845 0.17735 1.219 0 0 0 0 0 0 255
-0.553447 0.196898 1.223 0 0 0 0 0 0 255
-0.555394 0.208962 1.232 0 0 0 0 0 0 255
-0.53755 0.108146 1.197 0 0 0 0 0 0 255
-0.578527 0.286313 1.236 0 0 0 6 6 6 255
-0.533419 0.128772 1.197 0 0 0 0 0 0 255
-0.533419 0.12671 1.197 0 0 0 0 0 0 255
-0.559646 0.232314 1.232 0 0 0 0 0 1 255
-0.568221 0.22008 1.223 0 0 0 2 1 8 255
-0.567315 0.363523 1.283 0 0 0 0 0 0 255
-0.555558 0.192684 1.223 0 0 0 0 0 0 255
-0.598023 0.321865 1.25 0 0 0 73 72 79 255
-0.562887 0.365734 1.283 0 0 0 0 0 0 255
-0.573877 0.378238 1.273 0 0 0 84 83 90 255
-0.550566 0.276632 1.25 0 0 0 0 0 0 255
-0.571748 0.380476 1.288 0 0 0 0 0 0 255
-0.561772 0.232314 1.232 0 0 0 0 0 1 255
-0.561772 0.230191 1.232 0 0 0 0 0 0 255
-0.561772 0.228068 1.232 0 0 0 0 0 3 255
-0.541682 0.106084 1.197 0 0 0 0 0 0 255
-0.580907 0.245051 1.232 0 0 0 5 5 5 255
-0.565059 0.335239 1.268 0 0 0 0 0 0 255
-0.556302 0.336561 1.273 0 0 0 0 0 0 255
-0.566363 0.194154 1.219 0 0 0 2 1 8 255
-0.544399 0.224549 1.236 0 0 0 0 0 0 255
-0.589394 0.300325 1.25 0 0 0 8 7 23 255
-0.568221 0.21165 1.223 0 0 0 3 3 3 255
-0.566363 0.200455 1.219 0 0 0 3 2 10 255
-0.568151 0.249297 1.232 0 0 0 1 0 7 255
-0.576451 0.306787 1.25 0 0 0 0 4 10 255
-0.567639 0.325469 1.264 0 0 0 0 0 0 255
-0.558412 0.376037 1.288 0 0 0 8 3 5 255
-0.550165 0.109841 1.193 0 0 0 5 0 6 255
-0.563509 0.300325 1.25 0 0 0 0 0 0 255
-0.571623 0.368013 1.268 0 0 0 14 26 54 255
-0.580766 0.311095 1.25 0 0 0 7 6 13 255
-0.571623 0.370198 1.268 0 0 0 33 41 59 255
-0.533267 0.160912 1.206 0 0 0 0 0 0 255
-0.570094 0.312339 1.255 0 0 0 0 0 1 255
-0.574553 0.215865 1.223 0 0 0 6 6 6 255
-0.555558 0.194791 1.223 0 0 0 0 0 0 255
-0.571623 0.348349 1.268 0 0 0 0 0 1 255
-0.573811 0.359273 1.268 0 0 0 0 0 3 255
-0.57226 0.312339 1.255 0 0 0 0 0 4 255
-0.549375 0.166163 1.214 0 0 0 0 0 0 255
-0.565552 0.271235 1.245 0 0 0 0 0 0 255
-0.549375 0.159887 1.214 0 0 0 0 0 0 255
-0.574183 0.342894 1.264 0 0 0 0 0 3 255
-0.54309 0.15152 1.214 0 0 0 0 0 0 255
-0.555687 0.357168 1.292 0 0 0 0 0 0 255
-0.554118 0.30465 1.268 0 0 0 0 0 0 255
-0.545184 0.15152 1.214 0 0 0 0 0 0 255
-0.587059 0.262885 1.236 0 0 0 7 6 13 255
-0.557037 0.28094 1.25 0 0 0 0 0 0 255
-0.58508 0.313249 1.25 0 0 0 9 8 15 255
-0.565876 0.270364 1.241 0 0 0 0 0 0 255
-0.582923 0.317557 1.25 0 0 0 5 5 5 255
-0.552931 0.224549 1.236 0 0 0 0 0 0 255
-0.55147 0.159887 1.214 0 0 0 0 0 0 255
-0.587237 0.315403 1.25 0 0 0 15 7 17 255
-0.587237 0.313249 1.25 0 0 0 9 8 15 255
-0.568151 0.253543 1.232 0 0 0 1 0 7 255
-0.552768 0.299364 1.255 0 0 0 0 0 0 255
-0.55985 0.176623 1.214 0 0 0 0 0 6 255
-0.566024 0.234437 1.232 0 0 0 0 0 0 255
-0.558412 0.373818 1.288 0 0 0 0 0 0 255
-0.556189 0.349404 1.288 0 0 0 0 0 0 255
-0.554809 0.256218 1.245 0 0 0 0 0 0 255
-0.57057 0.208857 1.219 0 0 0 0 7 11 255
-0.589394 0.313249 1.25 0 0 0 5 12 26 255
-0.568221 0.215865 1.223 0 0 0 3 3 3 255
-0.551142 0.232314 1.232 0 0 0 0 0 0 255
-0.591551 0.313249 1.25 0 0 0 0 4 18 255
-0.591551 0.311095 1.25 0 0 0 3 1 18 255
-0.543223 0.162647 1.219 0 0 0 0 0 0 255
-0.554934 0.299364 1.255 0 0 0 0 0 0 255
-0.563403 0.279816 1.245 0 0 0 0 0 1 255
-0.560693 0.3555 1.278 0 0 0 0 0 0 255
-0.57168 0.371658 1.273 0 0 0 0 20 52 255
-0.562887 0.363523 1.283 0 0 0 0 0 0 255
-0.555064 0.226679 1.236 0 0 0 0 0 0 255
-0.565763 0.305852 1.255 0 0 0 0 0 0 255
-0.56509 0.334367 1.273 0 0 0 0 0 0 255
-0.5571 0.299364 1.255 0 0 0 0 0 0 255
-0.550602 0.286389 1.255 0 0 0 0 0 0 255
-0.550602 0.284226 1.255 0 0 0 0 0 0 255
-0.565845 0.227142 1.227 0 0 0 1 0 7 255
-0.565104 0.3555 1.278 0 0 0 0 0 0 255
-0.552723 0.278786 1.25 0 0 0 0 0 0 255
-0.576 0.365828 1.268 0 0 0 45 53 57 255
-0.569529 0.374577 1.283 0 0 0 0 0 12 255
-0.576364 0.340716 1.264 0 0 0 0 0 0 255
-0.576655 0.257789 1.232 0 0 0 5 5 5 255
-0.576257 0.348046 1.259 0 0 0 0 0 36 255
-0.554077 0.344489 1.278 0 0 0 0 0 0 255
-0.589394 0.321865 1.25 0 0 0 7 4 21 255
-0.551637 0.17945 1.219 0 0 0 0 0 0 255
-0.540341 0.0866431 1.185 0 0 0 0 0 0 255
-0.536259 0.293878 1.232 0 0 0 0 0 0 255
-0.578781 0.257789 1.232 0 0 0 3 3 3 255
-0.568151 0.240805 1.232 0 0 0 2 1 8 255
-0.556189 0.369379 1.288 0 0 0 0 0 3 255
-0.536259 0.279018 1.232 0 0 0 0 0 0 255
-0.548409 0.28094 1.25 0 0 0 0 0 0 255
-0.548409 0.276632 1.25 0 0 0 0 0 0 255
-0.556189 0.376037 1.288 0 0 0 30 23 26 255
-0.576 0.363643 1.268 0 0 0 24 32 36 255
-0.56287 0.330869 1.268 0 0 0 0 0 0 255
-0.561772 0.240805 1.232 0 0 0 0 0 3 255
-0.549944 0.132897 1.197 0 0 0 0 0 0 255
-0.555064 0.241587 1.236 0 0 0 0 0 0 255
-0.553268 0.215331 1.232 0 0 0 0 0 0 255
-0.556732 0.310223 1.264 0 0 0 0 0 0 255
-0.553741 0.175249 1.219 0 0 0 0 0 0 255
-0.567315 0.365734 1.283 0 0 0 0 0 0 255
-0.556302 0.327787 1.273 0 0 0 0 0 0 255
-0.558464 0.147951 1.202 0 0 0 7 0 10 255
-0.552723 0.289556 1.25 0 0 0 0 0 0 255
-0.552723 0.287402 1.25 0 0 0 0 0 0 255
-0.55488 0.276632 1.25 0 0 0 0 0 0 255
-0.551023 0.197542 1.227 0 0 0 0 0 0 255
-0.565457 0.318935 1.264 0 0 0 0 0 0 255
-0.546532 0.222419 1.236 0 0 0 0 0 0 255
-0.569739 0.326351 1.259 0 0 0 0 1 0 255
-0.533267 0.158834 1.206 0 0 0 0 0 0 255
-0.55488 0.28094 1.25 0 0 0 0 0 0 255
-0.55488 0.278786 1.25 0 0 0 0 0 0 255
-0.559646 0.234437 1.232 0 0 0 0 0 0 255
-0.539511 0.140131 1.206 0 0 0 0 0 0 255
-0.548093 0.133453 1.202 0 0 0 0 0 0 255
-0.555917 0.163531 1.21 0 0 0 0 0 4 255
-0.557037 0.276632 1.25 0 0 0 0 0 0 255
-0.573811 0.363643 1.268 0 0 0 0 6 7 255
-0.561772 0.221699 1.232 0 0 0 0 0 1 255
-0.560146 0.38611 1.292 0 0 0 28 27 32 255
-0.567639 0.318935 1.264 0 0 0 0 0 0 255
-0.556189 0.344966 1.288 0 0 0 0 0 0 255
-0.559194 0.276632 1.25 0 0 0 0 0 0 255
-0.542638 0.217453 1.232 0 0 0 0 0 0 255
-0.531636 0.124231 1.193 0 0 0 0 0 3 255
-0.568151 0.245051 1.232 0 0 0 7 0 2 255
-0.569435 0.350534 1.268 0 0 0 0 0 0 255
-0.55639 0.154165 1.202 0 0 0 2 1 8 255
-0.561351 0.28094 1.25 0 0 0 0 0 0 255
-0.56161 0.212342 1.227 0 0 0 0 0 4 255
-0.56161 0.210228 1.227 0 0 0 0 0 4 255
-0.55488 0.265863 1.25 0 0 0 0 0 0 255
-0.562155 0.198355 1.219 0 0 0 0 0 5 255
-0.54309 0.161979 1.214 0 0 0 0 0 0 255
-0.576432 0.2356 1.227 0 0 0 6 5 12 255
-0.55488 0.263709 1.25 0 0 0 0 0 0 255
-0.55488 0.261555 1.25 0 0 0 0 0 0 255
-0.556306 0.31339 1.268 0 0 0 0 0 0 255
-0.545813 0.114334 1.197 0 0 0 0 0 0 255
-0.561255 0.256218 1.245 0 0 0 0 0 0 255
-0.559779 0.207435 1.223 0 0 0 0 0 3 255
-0.57172 0.366511 1.278 0 0 0 0 0 16 255
-0.5571 0.295039 1.255 0 0 0 0 0 0 255
-0.574183 0.349428 1.264 0 0 0 0 0 12 255
-0.574146 0.296979 1.245 0 0 0 0 3 0 255
-0.548665 0.228808 1.236 0 0 0 0 0 0 255
-0.576451 0.317557 1.25 0 0 0 5 2 19 255
-0.564259 0.198355 1.219 0 0 0 1 0 7 255
-0.558494 0.315575 1.268 0 0 0 0 0 0 255
-0.558494 0.31339 1.268 0 0 0 0 0 0 255
-0.572001 0.340716 1.264 0 0 0 0 0 0 255
-0.580602 0.343707 1.259 0 0 0 0 0 4 255
-0.553741 0.183651 1.219 0 0 0 0 0 0 255
-0.539511 0.142209 1.206 0 0 0 0 0 0 255
-0.544764 0.238682 1.232 0 0 0 0 0 0 255
-0.54728 0.170347 1.214 0 0 0 0 0 0 255
-0.55488 0.29171 1.25 0 0 0 0 0 0 255
-0.574183 0.340716 1.264 0 0 0 0 0 0 255
-0.576584 0.293886 1.241 0 0 0 2 0 16 255
-0.559646 0.217453 1.232 0 0 0 0 0 0 255
-0.551142 0.213208 1.232 0 0 0 0 0 0 255
-0.572128 0.269275 1.236 0 0 0 0 0 5 255
-0.576432 0.229257 1.227 0 0 0 6 6 6 255
-0.568466 0.206757 1.219 0 0 0 3 2 10 255
-0.558458 0.35247 1.283 0 0 0 0 0 0 255
-0.546532 0.233068 1.236 0 0 0 0 0 0 255
-0.574261 0.290572 1.236 0 0 0 0 4 18 255
-0.554106 0.332174 1.273 0 0 0 0 0 0 255
-0.565059 0.328684 1.268 0 0 0 0 0 0 255
-0.584888 0.296979 1.245 0 0 0 8 8 8 255
-0.566024 0.245051 1.232 0 0 0 0 0 0 255
-0.546251 0.278786 1.25 0 0 0 0 0 0 255
-0.546251 0.276632 1.25 0 0 0 0 0 0 255
-0.563596 0.260755 1.236 0 0 0 0 0 0 255
-0.580726 0.355962 1.264 0 0 0 76 73 90 255
-0.57008 0.229257 1.227 0 0 0 6 3 20 255
-0.534869 0.061511 1.173 0 0 0 0 0 4 255
-0.567639 0.323291 1.264 0 0 0 0 0 0 255
-0.57168 0.369464 1.273 0 0 0 0 0 0 255
-0.589394 0.328326 1.25 0 0 0 63 64 59 255
-0.548409 0.278786 1.25 0 0 0 0 0 0 255
-0.546532 0.220289 1.236 0 0 0 0 0 0 255
-0.582784 0.2356 1.227 0 0 0 13 3 22 255
-0.556302 0.332174 1.273 0 0 0 0 0 0 255
-0.564259 0.196254 1.219 0 0 0 0 0 6 255
-0.565729 0.260755 1.236 0 0 0 0 0 0 255
-0.556189 0.373818 1.288 0 0 0 7 6 13 255
-0.574777 0.206757 1.219 0 0 0 5 3 11 255
-0.593709 0.311095 1.25 0 0 0 9 9 13 255
-0.5571 0.297202 1.255 0 0 0 0 0 0 255
-0.576394 0.279923 1.236 0 0 0 3 2 10 255
-0.571623 0.350534 1.268 0 0 0 0 0 1 255
-0.554118 0.319945 1.268 0 0 0 0 0 0 255
-0.576451 0.304633 1.25 0 0 0 2 1 8 255
-0.568221 0.217972 1.223 0 0 0 3 2 10 255
-0.578781 0.240805 1.232 0 0 0 5 3 11 255
-0.574315 0.231371 1.227 0 0 0 6 5 12 255
-0.559265 0.301527 1.255 0 0 0 0 0 0 255
-0.559265 0.297202 1.255 0 0 0 0 0 0 255
-0.578527 0.288443 1.236 0 0 0 8 0 10 255
-0.559194 0.28094 1.25 0 0 0 0 0 0 255
-0.572197 0.231371 1.227 0 0 0 5 3 11 255
-0.535647 0.143809 1.202 0 0 0 0 0 0 255
-0.572001 0.342894 1.264 0 0 0 1 0 3 255
-0.565552 0.292688 1.245 0 0 0 0 0 0 255
-0.565552 0.290543 1.245 0 0 0 0 0 1 255
-0.559106 0.277671 1.245 0 0 0 0 0 0 255
-0.561351 0.293864 1.25 0 0 0 0 0 0 255
-0.551871 0.326872 1.278 0 0 0 0 0 0 255
-0.567862 0.260755 1.236 0 0 0 2 2 2 255
-0.565845 0.2356 1.227 0 0 0 0 2 8 255
-0.576432 0.231371 1.227 0 0 0 6 5 12 255
-0.561431 0.299364 1.255 0 0 0 0 0 0 255
-0.567862 0.262885 1.236 0 0 0 0 1 5 255
-0.571623 0.374568 1.268 0 0 0 87 84 87 255
-0.574183 0.345072 1.264 0 0 0 0 0 0 255
-0.585151 0.278917 1.241 0 0 0 6 5 12 255
-0.58508 0.308941 1.25 0 0 0 7 6 13 255
-0.560682 0.319945 1.268 0 0 0 0 0 0 255
-0.572001 0.338538 1.264 0 0 0 0 0 0 255
-0.567303 0.373818 1.288 0 0 0 0 0 0 255
-0.555394 0.228068 1.232 0 0 0 0 0 0 255
-0.572403 0.259911 1.232 0 0 0 3 3 3 255
-0.536251 0.0866431 1.185 0 0 0 0 0 0 255
-0.555845 0.181551 1.219 0 0 0 0 0 0 255
-0.560696 0.343142 1.273 0 0 0 0 0 0 255
-0.563898 0.247174 1.232 0 0 0 0 0 0 255
-0.55752 0.217453 1.232 0 0 0 0 0 0 255
-0.563597 0.305852 1.255 0 0 0 0 0 0 255
-0.587237 0.306787 1.25 0 0 0 6 5 12 255
-0.568018 0.285333 1.241 0 0 0 0 0 5 255
-0.563898 0.245051 1.232 0 0 0 0 0 0 255
-0.557668 0.190576 1.223 0 0 0 0 0 1 255
-0.561593 0.268225 1.241 0 0 0 0 0 0 255
-0.554934 0.303689 1.255 0 0 0 0 0 0 255
-0.563898 0.234437 1.232 0 0 0 0 0 0 255
-0.557037 0.272325 1.25 0 0 0 0 0 0 255
-0.582923 0.315403 1.25 0 0 0 7 7 7 255
-0.582923 0.313249 1.25 0 0 0 7 6 13 255
-0.565059 0.319945 1.268 0 0 0 0 0 0 255
-0.560696 0.332174 1.273 0 0 0 0 0 0 255
-0.569483 0.358497 1.273 0 0 0 0 0 1 255
-0.548093 0.12931 1.202 0 0 0 0 0 0 255
-0.580923 0.333965 1.255 0 0 0 7 4 21 255
-0.538296 0.0866431 1.185 0 0 0 0 0 0 255
-0.567862 0.288443 1.236 0 0 0 0 0 5 255
-0.561945 0.176623 1.214 0 0 0 2 1 8 255
-0.567928 0.310177 1.255 0 0 0 0 0 1 255
-0.555558 0.190576 1.223 0 0 0 0 0 0 255
-0.591551 0.304633 1.25 0 0 0 10 8 25 255
-0.591551 0.306787 1.25 0 0 0 8 7 23 255
-0.551337 0.190576 1.223 0 0 0 0 0 0 255
-0.570277 0.245051 1.232 0 0 0 8 1 3 255
-0.539511 0.144287 1.206 0 0 0 0 0 0 255
-0.552768 0.284226 1.255 0 0 0 0 0 0 255
-0.56509 0.340948 1.273 0 0 0 0 0 0 255
-0.57226 0.310177 1.255 0 0 0 0 0 4 255
-0.549944 0.122585 1.197 0 0 0 0 0 3 255
-0.541682 0.110209 1.197 0 0 0 0 0 0 255
-0.571997 0.301269 1.245 0 0 0 2 2 2 255
-0.583009 0.278917 1.241 0 0 0 6 6 6 255
-0.56982 0.334182 1.264 0 0 0 0 0 1 255
-0.563898 0.230191 1.232 0 0 0 0 0 0 255
-0.551909 0.336561 1.273 0 0 0 0 0 0 255
-0.570159 0.278917 1.241 0 0 0 0 0 5 255
-0.57172 0.368713 1.278 0 0 0 0 0 4 255
-0.547515 0.347529 1.273 0 0 0 0 0 0 255
-0.568018 0.289609 1.241 0 0 0 0 0 4 255
-0.565552 0.286252 1.245 0 0 0 0 0 1 255
-0.552931 0.228808 1.236 0 0 0 0 0 0 255
-0.535484 0.112272 1.197 0 0 0 0 0 3 255
-0.576591 0.310177 1.255 0 0 0 0 4 8 255
-0.565845 0.210228 1.227 0 0 0 0 0 6 255
-0.589129 0.357088 1.268 0 0 0 78 78 78 255
-0.58508 0.328326 1.25 0 0 0 0 6 32 255
-0.568221 0.213758 1.223 0 0 0 0 5 12 255
-0.565552 0.279816 1.245 0 0 0 0 0 1 255
-0.568151 0.234437 1.232 0 0 0 1 0 7 255
-0.589394 0.317557 1.25 0 0 0 10 7 29 255
-0.543944 0.139666 1.202 0 0 0 0 0 0 255
-0.578527 0.279923 1.236 0 0 0 3 2 10 255
-0.53755 0.112272 1.197 0 0 0 0 0 0 255
-0.587237 0.328326 1.25 0 0 0 39 49 75 255
-0.573957 0.38342 1.283 0 0 0 63 62 65 255
-0.589394 0.302479 1.25 0 0 0 9 8 15 255
-0.547564 0.151021 1.21 0 0 0 0 0 0 255
-0.545318 0.369464 1.273 0 0 0 28 30 20 255
-0.53755 0.110209 1.197 0 0 0 0 0 0 255
-0.584947 0.345876 1.259 0 0 0 62 66 71 255
-0.564259 0.200455 1.219 0 0 0 1 0 7 255
-0.56161 0.216571 1.227 0 0 0 0 0 0 255
-0.56161 0.214457 1.227 0 0 0 0 0 3 255
-0.538899 0.170347 1.214 0 0 0 0 0 0 255
-0.565104 0.357702 1.278 0 0 0 0 0 0 255
-0.570332 0.224295 1.223 0 0 0 3 2 10 255
-0.563509 0.29171 1.25 0 0 0 0 0 1 255
-0.541682 0.108146 1.197 0 0 0 0 0 0 255
-0.55488 0.285248 1.25 0 0 0 0 0 0 255
-0.580766 0.319711 1.25 0 0 0 5 5 5 255
-0.567247 0.346164 1.268 0 0 0 0 0 0 255
-0.55314 0.203885 1.227 0 0 0 0 0 0 255
-0.565666 0.293864 1.25 0 0 0 0 0 3 255
-0.565666 0.29171 1.25 0 0 0 0 0 1 255
-0.56509 0.343142 1.273 0 0 0 0 0 0 255
-0.542638 0.240805 1.232 0 0 0 0 0 0 255
-0.548436 0.262601 1.255 0 0 0 0 0 0 255
-0.552768 0.303689 1.255 0 0 0 0 0 0 255
-0.538 0.207511 1.236 0 0 0 0 0 0 255
-0.56982 0.323291 1.264 0 0 0 0 0 0 255
-0.541119 0.156345 1.219 0 0 0 0 0 0 255
-0.55639 0.147951 1.202 0 0 0 4 0 5 255
-0.593709 0.306787 1.25 0 0 0 1 7 25 255
-0.566024 0.257789 1.232 0 0 0 0 4 8 255
-0.566024 0.253543 1.232 0 0 0 0 0 4 255
-0.578609 0.308941 1.25 0 0 0 5 3 11 255
-0.549375 0.172439 1.214 0 0 0 0 0 0 255
-0.578609 0.306787 1.25 0 0 0 0 5 12 255
-0.536259 0.276895 1.232 0 0 0 0 0 0 255
-0.565101 0.367945 1.283 0 0 0 0 0 0 255
-0.549653 0.155191 1.21 0 0 0 0 0 0 255
-0.538899 0.166163 1.214 0 0 0 0 0 0 255
-0.556958 0.256218 1.245 0 0 0 0 0 0 255
-0.55616 0.158834 1.206 0 0 0 0 0 5 255
-0.542266 0.2139 1.236 0 0 0 0 0 0 255
-0.569739 0.33286 1.259 0 0 0 0 0 1 255
-0.539616 0.110209 1.197 0 0 0 0 0 0 255
-0.580766 0.306787 1.25 0 0 0 5 3 11 255
-0.570332 0.22008 1.223 0 0 0 3 2 10 255
-0.539616 0.132897 1.197 0 0 0 0 0 0 255
-0.533573 0.135524 1.202 0 0 0 0 0 0 255
-0.559106 0.256218 1.245 0 0 0 0 0 0 255
-0.569529 0.372367 1.283 0 0 0 0 0 8 255
-0.570277 0.253543 1.232 0 0 0 2 1 8 255
-0.565845 0.225028 1.227 0 0 0 5 0 0 255
-0.558458 0.359102 1.283 0 0 0 0 0 0 255
-0.54187 0.123097 1.202 0 0 0 0 0 0 255
-0.557037 0.265863 1.25 0 0 0 0 0 0 255
-0.541682 0.112272 1.197 0 0 0 0 0 0 255
-0.54193 0.0995623 1.193 0 0 0 0 0 0 255
-0.566024 0.240805 1.232 0 0 0 0 1 5 255
-0.567566 0.317674 1.259 0 0 0 0 0 0 255
-0.552723 0.265863 1.25 0 0 0 0 0 0 255
-0.58508 0.300325 1.25 0 0 0 6 5 12 255
-0.559106 0.264799 1.245 0 0 0 0 0 0 255
-0.54193 0.0975066 1.193 0 0 0 0 0 0 255
-0.563898 0.249297 1.232 0 0 0 0 0 0 255
-0.574529 0.257789 1.232 0 0 0 5 3 11 255
-0.556958 0.254073 1.245 0 0 0 0 0 0 255
-0.545813 0.116397 1.197 0 0 0 0 0 0 255
-0.569515 0.368713 1.278 0 0 0 0 0 6 255
-0.545813 0.118459 1.197 0 0 0 0 0 0 255
-0.57008 0.237714 1.227 0 0 0 3 3 3 255
-0.572403 0.242928 1.232 0 0 0 3 2 10 255
-0.54187 0.137595 1.202 0 0 0 0 0 0 255
-0.540995 0.149428 1.214 0 0 0 0 0 0 255
-0.538674 0.192684 1.223 0 0 0 0 0 0 255
-0.5571 0.301527 1.255 0 0 0 0 0 0 255
-0.560693 0.346692 1.278 0 0 0 0 0 0 255
-0.559106 0.254073 1.245 0 0 0 0 0 0 255
-0.540435 0.189085 1.227 0 0 0 0 0 0 255
-0.540435 0.186971 1.227 0 0 0 0 0 0 255
-0.573957 0.38121 1.283 0 0 0 46 49 44 255
-0.569483 0.36069 1.273 0 0 0 0 0 0 255
-0.569483 0.349722 1.273 0 0 0 0 0 0 255
-0.573524 0.390563 1.292 0 0 0 71 69 79 255
-0.554316 0.141737 1.202 0 0 0 0 0 5 255
-0.567862 0.290572 1.236 0 0 0 0 6 2 255
-0.560635 0.373818 1.288 0 0 0 0 0 0 255
-0.54467 0.1912 1.227 0 0 0 0 0 0 255
-0.573811 0.352719 1.268 0 0 0 0 0 1 255
-0.576257 0.345876 1.259 0 0 0 0 0 33 255
-0.578527 0.282053 1.236 0 0 0 5 3 11 255
-0.534452 0.207435 1.223 0 0 0 0 0 0 255
-0.522213 0.143331 1.181 0 0 0 0 0 4 255
-0.563735 0.268225 1.241 0 0 0 0 0 1 255
-0.54728 0.157796 1.214 0 0 0 0 0 0 255
-0.566024 0.225945 1.232 0 0 0 0 0 6 255
-0.566024 0.223822 1.232 0 0 0 0 0 4 255
-0.584926 0.258626 1.236 0 0 0 5 3 11 255
-0.549944 0.128772 1.197 0 0 0 0 0 4 255
-0.573877 0.362884 1.273 0 0 0 0 0 1 255
-0.560693 0.357702 1.278 0 0 0 0 0 0 255
-0.544399 0.233068 1.236 0 0 0 0 0 0 255
-0.549375 0.157796 1.214 0 0 0 0 0 0 255
-0.578429 0.350215 1.259 0 0 0 0 20 52 255
-0.57168 0.380432 1.273 0 0 0 81 81 84 255
-0.549712 0.316819 1.273 0 0 0 0 0 0 255
-0.573877 0.367271 1.273 0 0 0 0 8 40 255
-0.540435 0.180628 1.227 0 0 0 0 0 0 255
-0.576591 0.312339 1.255 0 0 0 1 0 7 255
-0.548093 0.139666 1.202 0 0 0 0 0 0 255
-0.572197 0.2356 1.227 0 0 0 5 3 11 255
-0.549712 0.308045 1.273 0 0 0 0 0 0 255
-0.567962 0.237714 1.227 0 0 0 3 3 3 255
-0.589192 0.265015 1.236 0 0 0 7 6 13 255
-0.574529 0.245051 1.232 0 0 0 7 0 10 255
-0.576432 0.237714 1.227 0 0 0 0 8 12 255
-0.587037 0.290543 1.245 0 0 0 3 2 10 255
-0.554076 0.128772 1.197 0 0 0 2 2 2 255
-0.535647 0.135524 1.202 0 0 0 0 0 0 255
-0.587237 0.33048 1.25 0 0 0 56 65 80 255
-0.598023 0.319711 1.25 0 0 0 78 74 85 255
-0.551909 0.321206 1.273 0 0 0 0 0 0 255
-0.553447 0.194791 1.223 0 0 0 0 0 0 255
-0.570094 0.325315 1.255 0 0 0 0 0 0 255
-0.585254 0.327477 1.255 0 0 0 7 4 21 255
-0.548665 0.233068 1.236 0 0 0 0 0 0 255
-0.578757 0.312339 1.255 0 0 0 3 3 3 255
-0.578609 0.315403 1.25 0 0 0 6 3 20 255
-0.568151 0.259911 1.232 0 0 0 0 4 10 255
-0.587292 0.276779 1.241 0 0 0 7 6 13 255
-0.591551 0.317557 1.25 0 0 0 17 14 36 255
-0.560052 0.187852 1.219 0 0 0 0 0 3 255
-0.553565 0.166163 1.214 0 0 0 0 0 0 255
-0.567309 0.366511 1.278 0 0 0 0 0 0 255
-0.567309 0.364309 1.278 0 0 0 0 0 0 255
-0.578188 0.354903 1.268 0 0 0 0 0 9 255
-0.569995 0.271404 1.236 0 0 0 0 0 6 255
-0.573877 0.358497 1.273 0 0 0 0 0 1 255
-0.562155 0.187852 1.219 0 0 0 0 0 5 255
-0.554106 0.32998 1.273 0 0 0 0 0 0 255
-0.55403 0.370156 1.283 0 0 0 0 0 0 255
-0.55566 0.166163 1.214 0 0 0 0 0 1 255
-0.554118 0.31776 1.268 0 0 0 0 0 0 255
-0.543747 0.118459 1.197 0 0 0 0 0 0 255
-0.57168 0.358497 1.273 0 0 0 0 0 1 255
-0.568466 0.204656 1.219 0 0 0 5 3 11 255
-0.565845 0.214457 1.227 0 0 0 0 4 8 255
-0.552931 0.241587 1.236 0 0 0 0 0 0 255
-0.552931 0.239457 1.236 0 0 0 0 0 0 255
-0.587237 0.308941 1.25 0 0 0 7 6 13 255
-0.572197 0.233485 1.227 0 0 0 6 5 12 255
-0.565845 0.222914 1.227 0 0 0 5 0 6 255
-0.529577 0.13862 1.193 0 0 0 0 0 0 255
-0.57057 0.204656 1.219 0 0 0 5 3 11 255
-0.560693 0.353298 1.278 0 0 0 0 0 0 255
-0.559265 0.305852 1.255 0 0 0 0 0 0 255
-0.58727 0.353784 1.264 0 0 0 82 80 80 255
-0.578757 0.32964 1.255 0 0 0 3 2 10 255
-0.54309 0.170347 1.214 0 0 0 0 0 0 255
-0.54187 0.141737 1.202 0 0 0 0 0 0 255
-0.551741 0.157276 1.21 0 0 0 0 0 0 255
-0.563509 0.289556 1.25 0 0 0 0 0 5 255
-0.563735 0.263949 1.241 0 0 0 0 0 3 255
-0.561431 0.305852 1.255 0 0 0 0 0 0 255
-0.541592 0.142209 1.206 0 0 0 0 0 0 255
-0.574261 0.288443 1.236 0 0 0 3 2 10 255
-0.554076 0.132897 1.197 0 0 0 0 0 6 255
-0.55403 0.378999 1.283 0 0 0 28 28 28 255
-0.54446 0.223319 1.241 0 0 0 0 0 0 255
-0.55985 0.172439 1.214 0 0 0 0 0 5 255
-0.58066 0.269275 1.236 0 0 0 6 5 12 255
-0.541682 0.128772 1.197 0 0 0 0 0 0 255
-0.54728 0.164071 1.214 0 0 0 0 0 0 255
-0.555394 0.225945 1.232 0 0 0 0 0 0 255
-0.534808 0.198355 1.219 0 0 0 0 0 0 255
-0.534808 0.196254 1.219 0 0 0 0 0 0 255
-0.554118 0.306835 1.268 0 0 0 0 0 0 255
-0.545318 0.367271 1.273 0 0 0 23 23 23 255
-0.54728 0.155704 1.214 0 0 0 0 0 0 255
-0.549666 0.368713 1.278 0 0 0 7 6 13 255
-0.567928 0.318827 1.255 0 0 0 0 0 1 255
-0.55985 0.174531 1.214 0 0 0 0 0 6 255
-0.55616 0.160912 1.206 0 0 0 0 0 6 255
-0.538899 0.168255 1.214 0 0 0 0 0 0 255
-0.557948 0.198355 1.219 0 0 0 0 0 1 255
-0.565104 0.346692 1.278 0 0 0 0 0 0 255
-0.563898 0.242928 1.232 0 0 0 0 0 4 255
-0.545365 0.370198 1.268 0 0 0 32 24 27 255
-0.547515 0.369464 1.273 0 0 0 27 26 33 255
-0.553967 0.369379 1.288 0 0 0 0 0 5 255
-0.553967 0.358282 1.288 0 0 0 0 0 0 255
-0.567247 0.330869 1.268 0 0 0 0 0 0 255
-0.563735 0.276779 1.241 0 0 0 0 0 1 255
-0.557037 0.278786 1.25 0 0 0 0 0 0 255
-0.564259 0.189953 1.219 0 0 0 0 0 6 255
-0.563727 0.231371 1.227 0 0 0 0 0 4 255
-0.576 0.361458 1.268 0 0 0 2 5 29 255
-0.571911 0.33286 1.259 0 0 0 0 0 0 255
-0.571623 0.352719 1.268 0 0 0 0 0 1 255
-0.564394 0.392845 1.307 0 0 0 33 24 34 255
-0.55403 0.359102 1.283 0 0 0 0 0 0 255
-0.556189 0.356063 1.288 0 0 0 0 0 0 255
-0.556189 0.353843 1.288 0 0 0 0 0 0 255
-0.556189 0.351624 1.288 0 0 0 0 0 0 255
-0.556189 0.340527 1.288 0 0 0 0 0 0 255
-0.556189 0.336088 1.288 0 0 0 0 0 0 255
-0.552661 0.254073 1.245 0 0 0 0 0 0 255
-0.556958 0.251928 1.245 0 0 0 0 0 0 255
-0.574294 0.304633 1.25 0 0 0 2 2 2 255
-0.550798 0.228808 1.236 0 0 0 0 0 0 255
-0.563596 0.254366 1.236 0 0 0 0 0 1 255
-0.537124 0.146851 1.21 0 0 0 0 0 0 255
-0.56508 0.378256 1.288 0 0 0 0 0 13 255
-0.562155 0.189953 1.219 0 0 0 0 0 4 255
-0.564259 0.204656 1.219 0 0 0 0 0 6 255
-0.554106 0.338755 1.273 0 0 0 0 0 0 255
-0.545754 0.146365 1.206 0 0 0 0 0 0 255
-0.559779 0.205328 1.223 0 0 0 0 0 3 255
-0.553447 0.190576 1.223 0 0 0 0 0 0 255
-0.562314 0.392074 1.297 0 0 0 25 31 40 255
-0.558412 0.369379 1.288 0 0 0 0 0 0 255
-0.558412 0.356063 1.288 0 0 0 0 0 0 255
-0.556244 0.35247 1.283 0 0 0 0 0 0 255
-0.556244 0.348048 1.283 0 0 0 0 0 0 255
-0.551909 0.338755 1.273 0 0 0 0 0 0 255
-0.551909 0.332174 1.273 0 0 0 0 0 0 255
-0.549741 0.306835 1.268 0 0 0 0 0 0 255
-0.554118 0.315575 1.268 0 0 0 0 0 0 255
-0.553967 0.36494 1.288 0 0 0 0 0 0 255
-0.558458 0.35468 1.283 0 0 0 0 0 0 255
-0.541592 0.144287 1.206 0 0 0 0 0 0 255
-0.563727 0.229257 1.227 0 0 0 2 2 2 255
-0.563727 0.214457 1.227 0 0 0 0 0 4 255
-0.55933 0.237328 1.236 0 0 0 0 0 0 255
-0.562376 0.388336 1.292 0 0 0 37 35 47 255
-0.548409 0.265863 1.25 0 0 0 0 0 0 255
-0.562376 0.38611 1.292 0 0 0 33 32 37 255
-0.560635 0.380476 1.288 0 0 0 32 24 27 255
-0.560635 0.378256 1.288 0 0 0 13 13 13 255
-0.560635 0.376037 1.288 0 0 0 0 0 0 255
-0.558458 0.350259 1.283 0 0 0 0 0 0 255
-0.558458 0.348048 1.283 0 0 0 0 0 0 255
-0.554106 0.343142 1.273 0 0 0 0 0 0 255
-0.554106 0.340948 1.273 0 0 0 0 0 0 255
-0.554106 0.336561 1.273 0 0 0 0 0 0 255
-0.554106 0.334367 1.273 0 0 0 0 0 0 255
-0.554106 0.327787 1.273 0 0 0 0 0 0 255
-0.554106 0.325593 1.273 0 0 0 0 0 0 255
-0.548409 0.268017 1.25 0 0 0 0 0 0 255
-0.554106 0.316819 1.273 0 0 0 0 0 0 255
-0.551929 0.306835 1.268 0 0 0 0 0 0 255
-0.542638 0.211085 1.232 0 0 0 0 0 0 255
-0.536259 0.289632 1.232 0 0 0 0 0 0 255
-0.538 0.205381 1.236 0 0 0 0 0 0 255
-0.536259 0.202593 1.232 0 0 0 0 0 0 255
-0.561255 0.273381 1.245 0 0 0 0 0 0 255
-0.556189 0.36716 1.288 0 0 0 0 0 0 255
-0.548409 0.293864 1.25 0 0 0 0 0 0 255
-0.578429 0.339368 1.259 0 0 0 0 1 5 255
-0.565845 0.229257 1.227 0 0 0 2 2 2 255
-0.566791 0.392074 1.297 0 0 0 40 53 60 255
-0.546018 0.125168 1.202 0 0 0 0 0 0 255
-0.562858 0.384915 1.288 0 0 0 39 35 34 255
-0.562858 0.382695 1.288 0 0 0 37 34 26 255
-0.562858 0.380476 1.288 0 0 0 12 3 13 255
-0.562858 0.378256 1.288 0 0 0 1 0 18 255
-0.562858 0.371598 1.288 0 0 0 0 0 0 255
-0.558487 0.351096 1.278 0 0 0 0 0 0 255
-0.558487 0.348894 1.278 0 0 0 0 0 0 255
-0.556302 0.343142 1.273 0 0 0 0 0 0 255
-0.556302 0.334367 1.273 0 0 0 0 0 0 255
-0.556302 0.32998 1.273 0 0 0 0 0 0 255
-0.554118 0.324314 1.268 0 0 0 0 0 0 255
-0.554118 0.32213 1.268 0 0 0 0 0 0 255
-0.548436 0.297202 1.255 0 0 0 0 0 0 255
-0.548436 0.295039 1.255 0 0 0 0 0 0 255
-0.546251 0.274478 1.25 0 0 0 0 0 0 255
-0.548436 0.266926 1.255 0 0 0 0 0 0 255
-0.546251 0.259401 1.25 0 0 0 0 0 0 255
-0.538385 0.204716 1.232 0 0 0 0 0 0 255
-0.589394 0.311095 1.25 0 0 0 12 9 26 255
-0.57057 0.206757 1.219 0 0 0 3 2 10 255
-0.580376 0.365828 1.268 0 0 0 80 79 86 255
-0.56982 0.342894 1.264 0 0 0 0 0 1 255
-0.559106 0.258363 1.245 0 0 0 0 0 0 255
-0.56508 0.387134 1.288 0 0 0 55 57 43 255
-0.580923 0.32964 1.255 0 0 0 3 2 10 255
-0.580602 0.339368 1.259 0 0 0 0 3 24 255
-0.573877 0.380432 1.273 0 0 0 77 76 83 255
-0.542638 0.208962 1.232 0 0 0 0 0 0 255
-0.565393 0.315504 1.259 0 0 0 0 0 0 255
-0.542638 0.206839 1.232 0 0 0 0 0 0 255
-0.566835 0.390563 1.292 0 0 0 45 58 65 255
-0.56508 0.380476 1.288 0 0 0 0 0 0 255
-0.56508 0.376037 1.288 0 0 0 0 0 0 255
-0.562887 0.361313 1.283 0 0 0 0 0 0 255
-0.560693 0.344489 1.278 0 0 0 0 0 0 255
-0.558499 0.32998 1.273 0 0 0 0 0 0 255
-0.558499 0.327787 1.273 0 0 0 0 0 0 255
-0.556306 0.315575 1.268 0 0 0 0 0 0 255
-0.556306 0.311205 1.268 0 0 0 0 0 0 255
-0.554551 0.305867 1.264 0 0 0 0 0 0 255
-0.552357 0.302488 1.259 0 0 0 0 0 0 255
-0.548409 0.298171 1.25 0 0 0 0 0 0 255
-0.548409 0.296018 1.25 0 0 0 0 0 0 255
-0.548409 0.289556 1.25 0 0 0 0 0 0 255
-0.548409 0.274478 1.25 0 0 0 0 0 0 255
-0.548409 0.270171 1.25 0 0 0 0 0 0 255
-0.540512 0.240805 1.232 0 0 0 0 0 0 255
-0.54446 0.225457 1.241 0 0 0 0 0 0 255
-0.542266 0.220289 1.236 0 0 0 0 0 0 255
-0.542266 0.21816 1.236 0 0 0 0 0 0 255
-0.540512 0.208962 1.232 0 0 0 0 0 0 255
-0.540512 0.204716 1.232 0 0 0 0 0 0 255
-0.554316 0.152093 1.202 0 0 0 0 0 6 255
-0.572128 0.275664 1.236 0 0 0 2 1 8 255
-0.572128 0.273534 1.236 0 0 0 3 3 3 255
-0.572128 0.271404 1.236 0 0 0 0 0 6 255
-0.55933 0.245847 1.236 0 0 0 0 0 0 255
-0.556189 0.347185 1.288 0 0 0 0 0 0 255
-0.571748 0.387134 1.288 0 0 0 43 45 65 255
-0.536912 0.196254 1.219 0 0 0 0 0 0 255
-0.595866 0.308941 1.25 0 0 0 36 33 50 255
-0.560696 0.327787 1.273 0 0 0 0 0 0 255
-0.567303 0.382695 1.288 0 0 0 9 11 53 255
-0.567303 0.378256 1.288 0 0 0 0 0 0 255
-0.562898 0.351096 1.278 0 0 0 0 0 0 255
-0.560696 0.340948 1.273 0 0 0 0 0 0 255
-0.560696 0.32998 1.273 0 0 0 0 0 0 255
-0.558494 0.319945 1.268 0 0 0 0 0 0 255
-0.550566 0.289556 1.25 0 0 0 0 0 0 255
-0.550566 0.287402 1.25 0 0 0 0 0 0 255
-0.544399 0.245847 1.236 0 0 0 0 0 0 255
-0.544399 0.220289 1.236 0 0 0 0 0 0 255
-0.542638 0.204716 1.232 0 0 0 0 0 0 255
-0.536912 0.194154 1.219 0 0 0 0 0 0 255
-0.589394 0.315403 1.25 0 0 0 1 4 39 255
-0.554118 0.31339 1.268 0 0 0 0 0 0 255
-0.583089 0.333965 1.255 0 0 0 0 1 39 255
-0.583089 0.32964 1.255 0 0 0 0 6 20 255
-0.555687 0.363847 1.292 0 0 0 0 0 0 255
-0.569435 0.333054 1.268 0 0 0 0 0 0 255
-0.550798 0.21603 1.236 0 0 0 0 0 0 255
-0.555394 0.234437 1.232 0 0 0 0 0 0 255
-0.565845 0.212342 1.227 0 0 0 0 3 0 255
-0.567315 0.367945 1.283 0 0 0 0 0 0 255
-0.565104 0.351096 1.278 0 0 0 0 0 0 255
-0.562893 0.343142 1.273 0 0 0 0 0 0 255
-0.560682 0.31776 1.268 0 0 0 0 0 0 255
-0.560682 0.315575 1.268 0 0 0 0 0 0 255
-0.527802 0.136107 1.189 0 0 0 0 0 1 255
-0.554934 0.301527 1.255 0 0 0 0 0 0 255
-0.552723 0.285248 1.25 0 0 0 0 0 0 255
-0.552723 0.270171 1.25 0 0 0 0 0 0 255
-0.546532 0.224549 1.236 0 0 0 0 0 0 255
-0.522213 0.141296 1.181 0 0 0 0 0 3 255
-0.547836 0.144287 1.206 0 0 0 0 0 0 255
-0.543747 0.130835 1.197 0 0 0 0 0 0 255
-0.546532 0.21816 1.236 0 0 0 0 0 0 255
-0.568151 0.25142 1.232 0 0 0 1 0 7 255
-0.568151 0.26628 1.232 0 0 0 0 0 3 255
-0.571748 0.382695 1.288 0 0 0 0 0 18 255
-0.561095 0.316757 1.264 0 0 0 0 0 0 255
-0.558875 0.306827 1.259 0 0 0 0 0 0 255
-0.550885 0.244703 1.241 0 0 0 0 0 0 255
-0.54689 0.196225 1.232 0 0 0 0 0 0 255
-0.54467 0.180628 1.227 0 0 0 0 0 0 255
-0.567303 0.384915 1.288 0 0 0 12 15 53 255
-0.567303 0.380476 1.288 0 0 0 0 0 0 255
-0.538899 0.164071 1.214 0 0 0 0 0 0 255
-0.538899 0.161979 1.214 0 0 0 0 0 0 255
-0.527802 0.140205 1.189 0 0 0 0 0 0 255
-0.563898 0.232314 1.232 0 0 0 0 0 3 255
-0.560693 0.348894 1.278 0 0 0 0 0 0 255
-0.552723 0.261555 1.25 0 0 0 0 0 0 255
-0.540512 0.202593 1.232 0 0 0 0 0 0 255
-0.549944 0.118459 1.197 0 0 0 0 0 4 255
-0.5571 0.303689 1.255 0 0 0 0 0 0 255
-0.543944 0.123097 1.202 0 0 0 0 0 0 255
-0.553447 0.184254 1.223 0 0 0 0 0 0 255
-0.561351 0.296018 1.25 0 0 0 0 0 0 255
-0.587237 0.324018 1.25 0 0 0 0 2 42 255
-0.54309 0.164071 1.214 0 0 0 0 0 0 255
-0.551741 0.155191 1.21 0 0 0 0 0 0 255
-0.560696 0.338755 1.273 0 0 0 0 0 0 255
-0.573971 0.384915 1.288 0 0 0 39 44 58 255
-0.571743 0.378999 1.283 0 0 0 0 0 0 255
-0.569515 0.366511 1.278 0 0 0 0 0 0 255
-0.567287 0.347529 1.273 0 0 0 0 0 0 255
-0.565059 0.341794 1.268 0 0 0 0 0 0 255
-0.563276 0.312401 1.264 0 0 0 0 0 0 255
-0.559265 0.303689 1.255 0 0 0 0 0 0 255
-0.557037 0.263709 1.25 0 0 0 0 0 0 255
-0.550798 0.243717 1.236 0 0 0 0 0 0 255
-0.574183 0.34725 1.264 0 0 0 0 0 4 255
-0.550798 0.226679 1.236 0 0 0 0 0 0 255
-0.550798 0.224549 1.236 0 0 0 0 0 0 255
-0.550798 0.21816 1.236 0 0 0 0 0 0 255
-0.546788 0.193314 1.227 0 0 0 0 0 0 255
-0.540995 0.170347 1.214 0 0 0 0 0 0 255
-0.540995 0.164071 1.214 0 0 0 0 0 0 255
-0.543223 0.160546 1.219 0 0 0 0 0 0 255
-0.535647 0.141737 1.202 0 0 0 0 0 0 255
-0.533419 0.130835 1.197 0 0 0 0 0 0 255
-0.57226 0.320989 1.255 0 0 0 0 0 4 255
-0.578545 0.351606 1.264 0 0 0 0 0 32 255
-0.542895 0.177932 1.223 0 0 0 0 0 0 255
-0.574084 0.328521 1.259 0 0 0 0 0 3 255
-0.557037 0.289556 1.25 0 0 0 0 0 0 255
-0.557037 0.287402 1.25 0 0 0 0 0 0 255
-0.560093 0.163531 1.21 0 0 0 2 1 8 255
-0.559451 0.246841 1.241 0 0 0 0 0 0 255
-0.545184 0.164071 1.214 0 0 0 0 0 0 255
-0.583089 0.314502 1.255 0 0 0 7 6 13 255
-0.551023 0.193314 1.227 0 0 0 0 0 0 255
-0.576194 0.387134 1.288 0 0 0 81 81 81 255
-0.574084 0.337198 1.259 0 0 0 0 0 0 255
-0.559194 0.268017 1.25 0 0 0 0 0 0 255
-0.556958 0.249782 1.245 0 0 0 0 0 0 255
-0.552931 0.243717 1.236 0 0 0 0 0 0 255
-0.548905 0.193314 1.227 0 0 0 0 0 0 255
-0.545326 0.183651 1.219 0 0 0 0 0 0 255
-0.545326 0.17945 1.219 0 0 0 0 0 0 255
-0.54309 0.153612 1.214 0 0 0 0 0 0 255
-0.537721 0.133453 1.202 0 0 0 0 0 0 255
-0.535484 0.124647 1.197 0 0 0 0 0 0 255
-0.56982 0.340716 1.264 0 0 0 0 0 0 255
-0.56509 0.349722 1.273 0 0 0 0 0 0 255
-0.571743 0.376788 1.283 0 0 0 0 0 15 255
-0.566024 0.228068 1.232 0 0 0 0 0 5 255
-0.569435 0.348349 1.268 0 0 0 0 0 0 255
-0.587037 0.296979 1.245 0 0 0 7 6 13 255
-0.57172 0.37532 1.278 0 0 0 0 0 24 255
-0.574315 0.2356 1.227 0 0 0 6 5 12 255
-0.574315 0.233485 1.227 0 0 0 6 5 12 255
-0.563221 0.313335 1.259 0 0 0 0 0 0 255
-0.578417 0.387134 1.288 0 0 0 79 79 79 255
-0.57168 0.362884 1.273 0 0 0 0 0 12 255
-0.569435 0.337424 1.268 0 0 0 0 0 0 255
-0.565393 0.311165 1.259 0 0 0 0 0 0 255
-0.565393 0.308996 1.259 0 0 0 0 0 0 255
-0.563597 0.303689 1.255 0 0 0 0 0 0 255
-0.559106 0.273381 1.245 0 0 0 0 0 0 255
-0.559106 0.271235 1.245 0 0 0 0 0 0 255
-0.559106 0.266945 1.245 0 0 0 0 0 0 255
-0.559106 0.262654 1.245 0 0 0 0 0 0 255
-0.559106 0.260509 1.245 0 0 0 0 0 0 255
-0.555064 0.243717 1.236 0 0 0 0 0 0 255
-0.559106 0.251928 1.245 0 0 0 0 0 0 255
-0.552241 0.14588 1.202 0 0 0 0 0 0 255
-0.555064 0.239457 1.236 0 0 0 0 0 0 255
-0.552241 0.141737 1.202 0 0 0 0 0 0 255
-0.555064 0.237328 1.236 0 0 0 0 0 0 255
-0.552241 0.139666 1.202 0 0 0 0 0 1 255
-0.553268 0.232314 1.232 0 0 0 0 0 0 255
-0.553268 0.217453 1.232 0 0 0 0 0 0 255
-0.551023 0.195428 1.227 0 0 0 0 0 0 255
-0.549226 0.190576 1.223 0 0 0 0 0 0 255
-0.54743 0.175249 1.219 0 0 0 0 0 0 255
-0.545184 0.155704 1.214 0 0 0 0 0 0 255
-0.539796 0.137595 1.202 0 0 0 0 0 0 255
-0.583033 0.247174 1.232 0 0 0 7 7 7 255
-0.539796 0.133453 1.202 0 0 0 0 0 0 255
-0.53755 0.12671 1.197 0 0 0 0 0 0 255
-0.53755 0.122585 1.197 0 0 0 0 0 0 255
-0.53755 0.106084 1.197 0 0 0 0 0 0 255
-0.551909 0.334367 1.273 0 0 0 0 0 0 255
-0.595866 0.311095 1.25 0 0 0 61 60 65 255
-0.55488 0.289556 1.25 0 0 0 0 0 0 255
-0.55488 0.287402 1.25 0 0 0 0 0 0 255
-0.578429 0.345876 1.259 0 0 0 0 0 27 255
-0.562898 0.346692 1.278 0 0 0 0 0 0 255
-0.566024 0.242928 1.232 0 0 0 0 0 5 255
-0.558494 0.32213 1.268 0 0 0 0 0 0 255
-0.535647 0.137595 1.202 0 0 0 0 0 0 255
-0.561351 0.289556 1.25 0 0 0 0 0 0 255
-0.573877 0.365077 1.273 0 0 0 0 0 0 255
-0.573877 0.356303 1.273 0 0 0 0 0 0 255
-0.550512 0.254073 1.245 0 0 0 0 0 0 255
-0.571623 0.346164 1.268 0 0 0 0 0 1 255
-0.567566 0.311165 1.259 0 0 0 0 0 0 255
-0.561255 0.277671 1.245 0 0 0 0 0 0 255
-0.561255 0.260509 1.245 0 0 0 0 0 0 255
-0.559451 0.251118 1.241 0 0 0 0 0 0 255
-0.559451 0.24898 1.241 0 0 0 0 0 0 255
-0.554316 0.14588 1.202 0 0 0 2 0 0 255
-0.557197 0.241587 1.236 0 0 0 0 0 0 255
-0.557197 0.239457 1.236 0 0 0 0 0 0 255
-0.555394 0.232314 1.232 0 0 0 0 0 0 255
-0.555394 0.215331 1.232 0 0 0 0 0 0 255
-0.569526 0.376037 1.288 0 0 0 0 0 3 255
-0.549534 0.17735 1.219 0 0 0 0 0 0 255
-0.543673 0.146365 1.206 0 0 0 0 0 0 255
-0.543673 0.144287 1.206 0 0 0 0 0 0 255
-0.539616 0.130835 1.197 0 0 0 0 0 0 255
-0.54187 0.121025 1.202 0 0 0 0 0 0 255
-0.539616 0.112272 1.197 0 0 0 0 0 0 255
-0.539616 0.108146 1.197 0 0 0 0 0 0 255
-0.539616 0.106084 1.197 0 0 0 0 0 0 255
-0.565101 0.361313 1.283 0 0 0 0 0 0 255
-0.54746 0.364309 1.278 0 0 0 0 0 1 255
-0.565104 0.353298 1.278 0 0 0 0 0 1 255
-0.578549 0.2356 1.227 0 0 0 6 6 6 255
-0.566024 0.247174 1.232 0 0 0 0 0 0 255
-0.576074 0.358497 1.273 0 0 0 0 0 1 255
-0.572001 0.33636 1.264 0 0 0 0 0 0 255
-0.569739 0.324182 1.259 0 0 0 0 0 1 255
-0.567928 0.314502 1.255 0 0 0 0 0 1 255
-0.565666 0.296018 1.25 0 0 0 0 0 1 255
-0.558494 0.324314 1.268 0 0 0 0 0 0 255
-0.563403 0.281962 1.245 0 0 0 0 0 1 255
-0.563403 0.277671 1.245 0 0 0 0 0 1 255
-0.561593 0.266087 1.241 0 0 0 0 0 1 255
-0.561593 0.253257 1.241 0 0 0 0 0 0 255
-0.561593 0.251118 1.241 0 0 0 0 0 0 255
-0.561593 0.24898 1.241 0 0 0 0 0 0 255
-0.55639 0.150022 1.202 0 0 0 7 0 8 255
-0.55933 0.239457 1.236 0 0 0 0 0 0 255
-0.55639 0.141737 1.202 0 0 0 1 0 7 255
-0.55752 0.234437 1.232 0 0 0 0 0 0 255
-0.55752 0.232314 1.232 0 0 0 0 0 0 255
-0.55752 0.230191 1.232 0 0 0 0 0 0 255
-0.55752 0.223822 1.232 0 0 0 0 0 0 255
-0.55752 0.221699 1.232 0 0 0 0 0 0 255
-0.565552 0.284107 1.245 0 0 0 0 0 0 255
-0.573926 0.368713 1.278 0 0 0 0 0 3 255
-0.573926 0.366511 1.278 0 0 0 0 0 17 255
-0.549375 0.161979 1.214 0 0 0 0 0 0 255
-0.543944 0.121025 1.202 0 0 0 0 0 0 255
-0.569739 0.328521 1.259 0 0 0 0 0 1 255
-0.555394 0.219576 1.232 0 0 0 0 0 0 255
-0.558005 0.163531 1.21 0 0 0 0 0 5 255
-0.548665 0.241587 1.236 0 0 0 0 0 0 255
-0.582775 0.350215 1.259 0 0 0 73 84 90 255
-0.567287 0.349722 1.273 0 0 0 0 0 0 255
-0.536251 0.0784755 1.185 0 0 0 0 0 3 255
-0.574183 0.373386 1.264 0 0 0 78 78 80 255
-0.574183 0.366852 1.264 0 0 0 76 81 79 255
-0.570094 0.318827 1.255 0 0 0 0 0 1 255
-0.570094 0.316664 1.255 0 0 0 0 0 1 255
-0.567823 0.304633 1.25 0 0 0 0 0 4 255
-0.567823 0.302479 1.25 0 0 0 0 0 0 255
-0.567823 0.300325 1.25 0 0 0 0 0 1 255
-0.565552 0.288398 1.245 0 0 0 0 0 1 255
-0.563735 0.266087 1.241 0 0 0 0 0 0 255
-0.561463 0.247977 1.236 0 0 0 0 0 0 255
-0.561463 0.245847 1.236 0 0 0 0 0 0 255
-0.559646 0.23656 1.232 0 0 0 0 0 1 255
-0.559646 0.223822 1.232 0 0 0 0 0 0 255
-0.559646 0.221699 1.232 0 0 0 0 0 0 255
-0.559646 0.219576 1.232 0 0 0 0 0 0 255
-0.557375 0.206 1.227 0 0 0 0 0 0 255
-0.553741 0.17735 1.219 0 0 0 0 0 0 255
-0.55147 0.164071 1.214 0 0 0 0 0 0 255
-0.55147 0.161979 1.214 0 0 0 0 0 0 255
-0.546018 0.12931 1.202 0 0 0 0 0 0 255
-0.560323 0.158834 1.206 0 0 0 2 0 16 255
-0.54193 0.101618 1.193 0 0 0 0 0 0 255
-0.560323 0.154678 1.206 0 0 0 2 1 8 255
-0.538296 0.0805174 1.185 0 0 0 0 0 1 255
-0.587037 0.294834 1.245 0 0 0 7 6 13 255
-0.567566 0.313335 1.259 0 0 0 0 0 0 255
-0.580602 0.352384 1.259 0 0 0 67 72 66 255
-0.565059 0.330869 1.268 0 0 0 0 0 0 255
-0.578188 0.361458 1.268 0 0 0 48 51 75 255
-0.578188 0.359273 1.268 0 0 0 11 19 66 255
-0.578188 0.357088 1.268 0 0 0 0 0 31 255
-0.576364 0.351606 1.264 0 0 0 0 0 7 255
-0.574084 0.343707 1.259 0 0 0 0 0 0 255
-0.57226 0.323152 1.255 0 0 0 0 0 4 255
-0.5677 0.296979 1.245 0 0 0 0 0 4 255
-0.5677 0.294834 1.245 0 0 0 0 0 4 255
-0.565876 0.276779 1.241 0 0 0 0 0 3 255
-0.563596 0.265015 1.236 0 0 0 0 0 0 255
-0.561772 0.234437 1.232 0 0 0 0 0 0 255
-0.561772 0.223822 1.232 0 0 0 0 0 1 255
-0.557668 0.201113 1.223 0 0 0 0 0 1 255
-0.555845 0.185752 1.219 0 0 0 0 0 0 255
-0.553565 0.164071 1.214 0 0 0 0 0 0 255
-0.545813 0.124647 1.197 0 0 0 0 0 0 255
-0.545813 0.122585 1.197 0 0 0 0 0 0 255
-0.55933 0.243717 1.236 0 0 0 0 0 0 255
-0.557755 0.170347 1.214 0 0 0 0 0 4 255
-0.569435 0.330869 1.268 0 0 0 0 0 0 255
-0.576394 0.282053 1.236 0 0 0 3 2 10 255
-0.544764 0.213208 1.232 0 0 0 0 0 0 255
-0.551871 0.32467 1.278 0 0 0 0 0 0 255
-0.536804 0.157796 1.214 0 0 0 0 0 0 255
-0.561255 0.264799 1.245 0 0 0 0 0 0 255
-0.560682 0.324314 1.268 0 0 0 0 0 0 255
-0.554934 0.292877 1.255 0 0 0 0 0 0 255
-0.580376 0.357088 1.268 0 0 0 13 10 27 255
-0.55752 0.225945 1.232 0 0 0 0 0 0 255
-0.564 0.205328 1.223 0 0 0 0 0 5 255
-0.55752 0.219576 1.232 0 0 0 0 0 0 255
-0.574426 0.316664 1.255 0 0 0 0 0 4 255
-0.567566 0.315504 1.259 0 0 0 0 0 0 255
-0.568018 0.281056 1.241 0 0 0 0 0 5 255
-0.563898 0.228068 1.232 0 0 0 0 0 4 255
-0.569995 0.290572 1.236 0 0 0 0 4 10 255
-0.563898 0.225945 1.232 0 0 0 0 0 4 255
-0.56161 0.2208 1.227 0 0 0 0 0 3 255
-0.557948 0.196254 1.219 0 0 0 0 0 1 255
-0.55566 0.172439 1.214 0 0 0 0 0 0 255
-0.551998 0.148443 1.206 0 0 0 0 0 0 255
-0.551998 0.1526 1.206 0 0 0 0 0 1 255
-0.552931 0.235198 1.236 0 0 0 0 0 0 255
-0.559646 0.240805 1.232 0 0 0 0 0 1 255
-0.561463 0.254366 1.236 0 0 0 0 0 0 255
-0.572674 0.204656 1.219 0 0 0 5 3 11 255
-0.56982 0.338538 1.264 0 0 0 0 0 0 255
-0.567247 0.328684 1.268 0 0 0 0 0 0 255
-0.56189 0.205328 1.223 0 0 0 0 0 4 255
-0.563403 0.288398 1.245 0 0 0 0 0 7 255
-0.563403 0.286252 1.245 0 0 0 0 0 1 255
-0.54309 0.155704 1.214 0 0 0 0 0 0 255
-0.557755 0.178714 1.214 0 0 0 0 0 0 255
-0.55752 0.228068 1.232 0 0 0 0 0 0 255
-0.555394 0.223822 1.232 0 0 0 0 0 0 255
-0.548364 0.258363 1.245 0 0 0 0 0 0 255
-0.544399 0.247977 1.236 0 0 0 0 0 0 255
-0.56287 0.324314 1.268 0 0 0 0 0 0 255
-0.578429 0.348046 1.259 0 0 0 0 0 36 255
-0.570159 0.276779 1.241 0 0 0 0 0 5 255
-0.567862 0.265015 1.236 0 0 0 0 0 5 255
-0.563727 0.2208 1.227 0 0 0 0 0 5 255
-0.560052 0.189953 1.219 0 0 0 0 0 3 255
-0.557755 0.174531 1.214 0 0 0 0 0 0 255
-0.557755 0.172439 1.214 0 0 0 0 0 0 255
-0.554079 0.160912 1.206 0 0 0 0 0 4 255
-0.554079 0.158834 1.206 0 0 0 0 0 4 255
-0.552241 0.147951 1.202 0 0 0 0 0 0 255
-0.549944 0.13496 1.197 0 0 0 0 0 3 255
-0.549944 0.120522 1.197 0 0 0 0 0 4 255
-0.561351 0.298171 1.25 0 0 0 0 0 0 255
-0.539871 0.101618 1.193 0 0 0 0 0 0 255
-0.539871 0.0995623 1.193 0 0 0 0 0 0 255
-0.54743 0.181551 1.219 0 0 0 0 0 0 255
-0.563403 0.284107 1.245 0 0 0 0 0 1 255
-0.559646 0.228068 1.232 0 0 0 0 0 1 255
-0.553447 0.188469 1.223 0 0 0 0 0 0 255
-0.580602 0.350215 1.259 0 0 0 26 36 42 255
-0.580602 0.348046 1.259 0 0 0 13 20 34 255
-0.558241 0.158834 1.206 0 0 0 1 0 7 255
-0.578757 0.331802 1.255 0 0 0 0 6 10 255
-0.578757 0.327477 1.255 0 0 0 3 2 10 255
-0.576451 0.321865 1.25 0 0 0 3 2 10 255
-0.56404 0.178714 1.214 0 0 0 1 0 7 255
-0.576451 0.319711 1.25 0 0 0 0 6 10 255
-0.569995 0.288443 1.236 0 0 0 0 0 5 255
-0.572301 0.283194 1.241 0 0 0 1 0 7 255
-0.572301 0.276779 1.241 0 0 0 0 0 6 255
-0.554316 0.150022 1.202 0 0 0 2 0 4 255
-0.554316 0.147951 1.202 0 0 0 2 0 4 255
-0.554316 0.139666 1.202 0 0 0 0 0 4 255
-0.55201 0.128772 1.197 0 0 0 0 0 0 255
-0.55201 0.124647 1.197 0 0 0 0 0 5 255
-0.55201 0.122585 1.197 0 0 0 4 0 5 255
-0.563898 0.240805 1.232 0 0 0 0 1 5 255
-0.563898 0.238682 1.232 0 0 0 0 0 0 255
-0.563898 0.23656 1.232 0 0 0 0 0 4 255
-0.562893 0.340948 1.273 0 0 0 0 0 0 255
-0.576394 0.269275 1.236 0 0 0 6 6 6 255
-0.571623 0.372383 1.268 0 0 0 69 74 72 255
-0.565876 0.285333 1.241 0 0 0 0 0 4 255
-0.544399 0.230938 1.236 0 0 0 0 0 0 255
-0.561945 0.178714 1.214 0 0 0 0 0 6 255
-0.576394 0.267145 1.236 0 0 0 9 2 5 255
-0.591551 0.315403 1.25 0 0 0 0 0 36 255
-0.580923 0.327477 1.255 0 0 0 2 1 8 255
-0.578609 0.304633 1.25 0 0 0 3 2 10 255
-0.572128 0.290572 1.236 0 0 0 0 5 12 255
-0.557037 0.268017 1.25 0 0 0 0 0 0 255
-0.548743 0.244703 1.241 0 0 0 0 0 0 255
-0.557037 0.261555 1.25 0 0 0 0 0 0 255
-0.570277 0.264157 1.232 0 0 0 8 1 3 255
-0.570277 0.255666 1.232 0 0 0 6 5 12 255
-0.570277 0.25142 1.232 0 0 0 2 1 8 255
-0.570277 0.249297 1.232 0 0 0 1 0 7 255
-0.549016 0.204716 1.232 0 0 0 0 0 0 255
-0.558241 0.160912 1.206 0 0 0 0 0 6 255
-0.55933 0.241587 1.236 0 0 0 0 0 0 255
-0.55639 0.139666 1.202 0 0 0 0 0 6 255
-0.554076 0.130835 1.197 0 0 0 0 0 6 255
-0.576257 0.337198 1.259 0 0 0 0 2 6 255
-0.571911 0.328521 1.259 0 0 0 0 0 3 255
-0.541682 0.130835 1.197 0 0 0 0 0 0 255
-0.584947 0.350215 1.259 0 0 0 84 82 83 255
-0.546215 0.228329 1.245 0 0 0 0 0 0 255
-0.558458 0.361313 1.283 0 0 0 0 0 0 255
-0.557668 0.203221 1.223 0 0 0 0 0 0 255
-0.543388 0.148936 1.21 0 0 0 0 0 0 255
-0.573926 0.37532 1.278 0 0 0 53 59 89 255
-0.542638 0.234437 1.232 0 0 0 0 0 0 255
-0.567309 0.357702 1.278 0 0 0 0 0 0 255
-0.585151 0.287471 1.241 0 0 0 6 5 12 255
-0.538 0.273534 1.236 0 0 0 0 0 0 255
-0.576451 0.315403 1.25 0 0 0 3 1 18 255
-0.584947 0.348046 1.259 0 0 0 79 79 79 255
-0.580766 0.317557 1.25 0 0 0 6 6 6 255
-0.574261 0.286313 1.236 0 0 0 3 3 3 255
-0.574261 0.284183 1.236 0 0 0 3 2 10 255
-0.574261 0.282053 1.236 0 0 0 3 2 10 255
-0.574261 0.279923 1.236 0 0 0 2 1 8 255
-0.574261 0.275664 1.236 0 0 0 3 2 10 255
-0.552768 0.301527 1.255 0 0 0 0 0 0 255
-0.572403 0.264157 1.232 0 0 0 3 3 3 255
-0.572403 0.262034 1.232 0 0 0 5 3 11 255
-0.552768 0.297202 1.255 0 0 0 0 0 0 255
-0.552768 0.295039 1.255 0 0 0 0 0 0 255
-0.572403 0.257789 1.232 0 0 0 5 3 11 255
-0.552768 0.292877 1.255 0 0 0 0 0 0 255
-0.572403 0.255666 1.232 0 0 0 5 3 11 255
-0.572403 0.253543 1.232 0 0 0 2 1 8 255
-0.572403 0.247174 1.232 0 0 0 7 0 10 255
-0.57008 0.2356 1.227 0 0 0 5 3 11 255
-0.57168 0.36069 1.273 0 0 0 0 0 0 255
-0.57008 0.227142 1.227 0 0 0 6 5 12 255
-0.568221 0.222187 1.223 0 0 0 7 0 10 255
-0.568221 0.209543 1.223 0 0 0 0 4 10 255
-0.568221 0.207435 1.223 0 0 0 1 0 7 255
-0.566363 0.204656 1.219 0 0 0 1 0 7 255
-0.560323 0.156756 1.206 0 0 0 2 1 8 255
-0.534808 0.183651 1.219 0 0 0 0 0 0 255
-0.593709 0.317557 1.25 0 0 0 30 30 32 255
-0.548665 0.226679 1.236 0 0 0 0 0 0 255
-0.548665 0.224549 1.236 0 0 0 0 0 0 255
-0.571997 0.299124 1.245 0 0 0 0 0 6 255
-0.557948 0.183651 1.219 0 0 0 0 0 3 255
-0.546788 0.1912 1.227 0 0 0 0 0 0 255
-0.546788 0.189085 1.227 0 0 0 0 0 0 255
-0.536479 0.0680355 1.181 0 0 0 0 0 5 255
-0.535868 0.292702 1.236 0 0 0 0 0 0 255
-0.56161 0.218685 1.227 0 0 0 0 0 3 255
-0.576394 0.286313 1.236 0 0 0 3 3 3 255
-0.541682 0.124647 1.197 0 0 0 0 0 0 255
-0.554934 0.297202 1.255 0 0 0 0 0 0 255
-0.554934 0.295039 1.255 0 0 0 0 0 0 255
-0.553268 0.213208 1.232 0 0 0 0 0 0 255
-0.568466 0.196254 1.219 0 0 0 3 2 10 255
-0.563727 0.2356 1.227 0 0 0 0 0 6 255
-0.566111 0.209543 1.223 0 0 0 1 0 7 255
-0.566111 0.207435 1.223 0 0 0 0 0 6 255
-0.563509 0.298171 1.25 0 0 0 0 0 0 255
-0.563509 0.293864 1.25 0 0 0 0 0 1 255
-0.560093 0.165616 1.21 0 0 0 0 4 8 255
-0.595866 0.324018 1.25 0 0 0 77 75 76 255
-0.595866 0.313249 1.25 0 0 0 66 63 82 255
-0.569739 0.33069 1.259 0 0 0 0 0 0 255
-0.534206 0.0805174 1.185 0 0 0 3 2 10 255
-0.562893 0.32998 1.273 0 0 0 0 0 0 255
-0.567303 0.376037 1.288 0 0 0 0 0 4 255
-0.582923 0.311095 1.25 0 0 0 7 6 13 255
-0.536804 0.155704 1.214 0 0 0 0 0 0 255
-0.576364 0.36903 1.264 0 0 0 78 78 80 255
-0.549602 0.367945 1.283 0 0 0 3 1 18 255
-0.569483 0.362884 1.273 0 0 0 0 0 9 255
-0.582923 0.306787 1.25 0 0 0 6 5 12 255
-0.582923 0.304633 1.25 0 0 0 5 3 11 255
-0.569435 0.339609 1.268 0 0 0 0 0 0 255
-0.58508 0.33048 1.25 0 0 0 5 14 29 255
-0.578527 0.271404 1.236 0 0 0 6 5 12 255
-0.578527 0.269275 1.236 0 0 0 6 5 12 255
-0.578527 0.267145 1.236 0 0 0 11 2 12 255
-0.578527 0.265015 1.236 0 0 0 11 3 6 255
-0.576655 0.25142 1.232 0 0 0 6 5 12 255
-0.576655 0.249297 1.232 0 0 0 0 7 11 255
-0.576655 0.247174 1.232 0 0 0 3 3 3 255
-0.576655 0.245051 1.232 0 0 0 2 2 2 255
-0.574315 0.237714 1.227 0 0 0 0 8 12 255
-0.574315 0.229257 1.227 0 0 0 6 6 6 255
-0.574315 0.222914 1.227 0 0 0 2 1 8 255
-0.531028 0.0613012 1.169 0 0 0 0 0 6 255
-0.572128 0.288443 1.236 0 0 0 2 1 8 255
-0.565729 0.265015 1.236 0 0 0 0 0 4 255
-0.58712 0.337198 1.259 0 0 0 16 26 59 255
-0.56509 0.347529 1.273 0 0 0 0 0 0 255
-0.56509 0.345335 1.273 0 0 0 0 0 0 255
-0.554106 0.319013 1.273 0 0 0 0 0 0 255
-0.552931 0.230938 1.236 0 0 0 0 0 0 255
-0.552931 0.226679 1.236 0 0 0 0 0 0 255
-0.536251 0.0805174 1.185 0 0 0 0 0 3 255
-0.551909 0.316819 1.273 0 0 0 0 0 0 255
-0.562898 0.348894 1.278 0 0 0 0 0 0 255
-0.587237 0.326172 1.25 0 0 0 14 14 53 255
-0.587237 0.319711 1.25 0 0 0 8 2 38 255
-0.587237 0.317557 1.25 0 0 0 8 5 22 255
-0.584888 0.294834 1.245 0 0 0 5 3 11 255
-0.584888 0.292688 1.245 0 0 0 6 5 12 255
-0.58066 0.265015 1.236 0 0 0 12 5 7 255
-0.578781 0.253543 1.232 0 0 0 11 2 12 255
-0.578781 0.245051 1.232 0 0 0 5 5 5 255
-0.578781 0.242928 1.232 0 0 0 5 5 5 255
-0.55752 0.213208 1.232 0 0 0 0 0 0 255
-0.578757 0.310177 1.255 0 0 0 3 2 10 255
-0.572197 0.239828 1.227 0 0 0 5 3 11 255
-0.574553 0.213758 1.223 0 0 0 5 3 11 255
-0.572674 0.202556 1.219 0 0 0 6 5 12 255
-0.570332 0.222187 1.223 0 0 0 7 0 10 255
-0.567962 0.2356 1.227 0 0 0 0 5 12 255
-0.567962 0.227142 1.227 0 0 0 5 3 11 255
-0.563509 0.296018 1.25 0 0 0 0 0 1 255
-0.544764 0.211085 1.232 0 0 0 0 0 0 255
-0.542553 0.1912 1.227 0 0 0 0 0 0 255
-0.544764 0.208962 1.232 0 0 0 0 0 0 255
-0.542553 0.189085 1.227 0 0 0 0 0 0 255
-0.540512 0.211085 1.232 0 0 0 0 0 0 255
-0.58274 0.296979 1.245 0 0 0 6 6 6 255
-0.548409 0.259401 1.25 0 0 0 0 0 0 255
-0.556302 0.340948 1.273 0 0 0 0 0 0 255
-0.563596 0.262885 1.236 0 0 0 0 0 3 255
-0.576394 0.265015 1.236 0 0 0 6 6 6 255
-0.538296 0.0846012 1.185 0 0 0 0 0 0 255
-0.591465 0.341537 1.259 0 0 0 79 80 75 255
-0.565104 0.348894 1.278 0 0 0 0 0 0 255
-0.578609 0.321865 1.25 0 0 0 5 3 11 255
-0.587237 0.304633 1.25 0 0 0 6 5 12 255
-0.561463 0.252236 1.236 0 0 0 0 0 0 255
-0.561463 0.250106 1.236 0 0 0 0 0 0 255
-0.543747 0.112272 1.197 0 0 0 0 0 0 255
-0.543747 0.110209 1.197 0 0 0 0 0 0 255
-0.552241 0.154165 1.202 0 0 0 0 0 3 255
-0.570332 0.21165 1.223 0 0 0 5 5 5 255
-0.582793 0.269275 1.236 0 0 0 6 5 12 255
-0.582793 0.267145 1.236 0 0 0 7 6 13 255
-0.553829 0.157276 1.21 0 0 0 0 0 1 255
-0.582793 0.265015 1.236 0 0 0 7 6 13 255
