ply
format ascii 1.0
element vertex 568
property float x
property float y
property float z
property float normal_x
property float normal_y
property float normal_z
property uchar red
property uchar green
property uchar blue
property uchar alpha
end_header
-0.111457 -0.193036 0.749 0 0 0 134 63 65 255
-0.115007 -0.167939 0.764 0 0 0 148 30 63 255
-0.117644 -0.169256 0.764 0 0 0 159 52 53 255
-0.104186 -0.187195 0.762 0 0 0 142 71 73 255
-0.0941579 -0.184218 0.766 0 0 0 205 199 199 255
-0.118184 -0.18515 0.759 0 0 0 165 58 59 255
-0.106055 -0.167059 0.766 0 0 0 157 123 138 255
-0.107377 -0.167059 0.766 0 0 0 138 73 95 255
-0.100241 -0.178004 0.762 0 0 0 209 179 176 255
-0.102223 -0.168599 0.767 0 0 0 186 164 221 255
-0.121918 -0.169699 0.766 0 0 0 176 56 65 255
-0.113689 -0.165306 0.764 0 0 0 194 145 154 255
-0.112749 -0.193036 0.749 0 0 0 148 67 77 255
-0.115007 -0.16399 0.764 0 0 0 176 145 144 255
-0.115007 -0.165306 0.764 0 0 0 196 145 127 255
-0.0954798 -0.181578 0.766 0 0 0 213 201 203 255
-0.101823 -0.171889 0.764 0 0 0 134 50 53 255
-0.103141 -0.171889 0.764 0 0 0 121 37 41 255
-0.108131 -0.170126 0.762 0 0 0 128 48 67 255
-0.109446 -0.170126 0.762 0 0 0 134 50 57 255
-0.102682 -0.197433 0.751 0 0 0 201 194 196 255
-0.096549 -0.18242 0.764 0 0 0 203 199 190 255
-0.0991858 -0.179787 0.764 0 0 0 224 194 190 255
-0.0991858 -0.181104 0.764 0 0 0 224 190 186 255
-0.104049 -0.183015 0.761 0 0 0 146 52 81 255
-0.104049 -0.184327 0.761 0 0 0 140 52 79 255
-0.107866 -0.194845 0.751 0 0 0 178 112 138 255
-0.110458 -0.194845 0.751 0 0 0 138 63 71 255
-0.119966 -0.171439 0.762 0 0 0 176 56 65 255
-0.104117 -0.192513 0.752 0 0 0 194 197 186 255
-0.11953 -0.194845 0.751 0 0 0 165 65 85 255
-0.120826 -0.193551 0.751 0 0 0 153 58 87 255
-0.120826 -0.194845 0.751 0 0 0 171 63 91 255
-0.122113 -0.182534 0.759 0 0 0 161 48 79 255
-0.108699 -0.165739 0.766 0 0 0 190 162 172 255
-0.111457 -0.196908 0.749 0 0 0 146 71 79 255
-0.111457 -0.198198 0.749 0 0 0 134 69 69 255
-0.103546 -0.168599 0.767 0 0 0 161 138 198 255
-0.116326 -0.165306 0.764 0 0 0 190 138 121 255
-0.119021 -0.18051 0.756 0 0 0 159 43 43 255
-0.120326 -0.18051 0.756 0 0 0 159 43 43 255
-0.102061 -0.196143 0.756 0 0 0 201 194 196 255
-0.114803 -0.186529 0.754 0 0 0 142 41 59 255
-0.11526 -0.184662 0.757 0 0 0 159 50 79 255
-0.110458 -0.193551 0.751 0 0 0 125 54 57 255
-0.105086 -0.186458 0.759 0 0 0 134 63 65 255
-0.109015 -0.173379 0.759 0 0 0 140 45 61 255
-0.111635 -0.173379 0.759 0 0 0 136 45 59 255
-0.119494 -0.18515 0.759 0 0 0 169 69 67 255
-0.119494 -0.173379 0.759 0 0 0 171 54 63 255
-0.120804 -0.173379 0.759 0 0 0 169 52 61 255
-0.100757 -0.19484 0.756 0 0 0 203 197 198 255
-0.112647 -0.184662 0.757 0 0 0 144 58 71 255
-0.120596 -0.167059 0.766 0 0 0 155 65 31 255
-0.102061 -0.19484 0.756 0 0 0 203 197 198 255
-0.100241 -0.179317 0.762 0 0 0 217 188 184 255
-0.100504 -0.181104 0.764 0 0 0 222 188 184 255
-0.101556 -0.178004 0.762 0 0 0 132 48 51 255
-0.0968017 -0.174978 0.766 0 0 0 207 194 198 255
-0.0981236 -0.174978 0.766 0 0 0 213 201 203 255
-0.115334 -0.193036 0.749 0 0 0 155 69 53 255
-0.116566 -0.184662 0.757 0 0 0 163 56 57 255
-0.110164 -0.196908 0.749 0 0 0 144 69 77 255
-0.0958538 -0.170363 0.769 0 0 0 188 188 188 255
-0.118184 -0.174687 0.759 0 0 0 163 50 53 255
-0.120281 -0.170572 0.764 0 0 0 173 45 85 255
-0.121599 -0.170572 0.764 0 0 0 176 48 87 255
-0.099835 -0.170363 0.769 0 0 0 188 173 192 255
-0.101162 -0.170363 0.769 0 0 0 184 169 188 255
-0.116412 -0.187024 0.756 0 0 0 157 39 71 255
-0.117873 -0.187271 0.757 0 0 0 163 45 77 255
-0.092836 -0.185538 0.766 0 0 0 205 197 207 255
-0.0941579 -0.177618 0.766 0 0 0 203 197 198 255
-0.0941579 -0.178938 0.766 0 0 0 205 199 199 255
-0.0941579 -0.180258 0.766 0 0 0 209 197 199 255
-0.0941579 -0.185538 0.766 0 0 0 207 201 201 255
-0.0958538 -0.171688 0.769 0 0 0 186 188 178 255
-0.0958538 -0.173014 0.769 0 0 0 194 188 190 255
-0.0958538 -0.174339 0.769 0 0 0 203 192 186 255
-0.0952305 -0.18242 0.764 0 0 0 205 199 199 255
-0.0954798 -0.185538 0.766 0 0 0 205 199 199 255
-0.108699 -0.161779 0.766 0 0 0 194 194 194 255
-0.0969281 -0.168599 0.767 0 0 0 194 194 194 255
-0.0969281 -0.16992 0.767 0 0 0 188 188 188 255
-0.0969281 -0.171242 0.767 0 0 0 188 184 176 255
-0.0968017 -0.177618 0.766 0 0 0 203 199 190 255
-0.0968017 -0.181578 0.766 0 0 0 207 197 190 255
-0.0968017 -0.185538 0.766 0 0 0 199 199 198 255
-0.0968017 -0.186858 0.766 0 0 0 203 197 198 255
-0.110021 -0.161779 0.766 0 0 0 194 194 194 255
-0.106193 -0.165955 0.767 0 0 0 194 186 201 255
-0.0982517 -0.168599 0.767 0 0 0 192 192 192 255
-0.0982517 -0.16992 0.767 0 0 0 180 179 180 255
-0.0982517 -0.171242 0.767 0 0 0 188 184 176 255
-0.0982517 -0.173885 0.767 0 0 0 203 190 194 255
-0.0981236 -0.178938 0.766 0 0 0 207 199 186 255
-0.0981236 -0.180258 0.766 0 0 0 203 192 186 255
-0.0981236 -0.181578 0.766 0 0 0 203 192 186 255
-0.0981236 -0.186858 0.766 0 0 0 203 197 198 255
-0.0995753 -0.171242 0.767 0 0 0 190 173 201 255
-0.0994455 -0.186858 0.766 0 0 0 215 197 192 255
-0.0994455 -0.188178 0.766 0 0 0 211 201 194 255
-0.109015 -0.175995 0.759 0 0 0 138 41 75 255
-0.0995753 -0.191067 0.767 0 0 0 199 199 198 255
-0.112945 -0.173379 0.759 0 0 0 140 50 63 255
-0.101425 -0.168149 0.771 0 0 0 192 190 199 255
-0.100504 -0.18242 0.764 0 0 0 219 190 190 255
-0.100767 -0.184218 0.766 0 0 0 222 194 194 255
-0.100767 -0.188178 0.766 0 0 0 213 203 196 255
-0.101823 -0.173205 0.764 0 0 0 123 39 61 255
-0.102223 -0.16992 0.767 0 0 0 163 115 144 255
-0.102089 -0.171019 0.766 0 0 0 159 91 117 255
-0.101823 -0.174522 0.764 0 0 0 128 48 67 255
-0.101556 -0.175378 0.762 0 0 0 125 52 51 255
-0.101556 -0.181943 0.762 0 0 0 163 80 53 255
-0.101823 -0.191636 0.764 0 0 0 199 201 186 255
-0.103141 -0.170572 0.764 0 0 0 111 41 71 255
-0.102871 -0.172752 0.762 0 0 0 121 37 59 255
-0.102736 -0.175148 0.761 0 0 0 121 48 47 255
-0.102736 -0.176459 0.761 0 0 0 115 41 41 255
-0.102736 -0.179082 0.761 0 0 0 119 35 39 255
-0.102871 -0.183256 0.762 0 0 0 136 54 65 255
-0.102871 -0.184569 0.762 0 0 0 159 93 45 255
-0.102196 -0.18988 0.757 0 0 0 199 201 186 255
-0.101386 -0.196139 0.751 0 0 0 194 194 194 255
-0.107377 -0.165739 0.766 0 0 0 194 166 176 255
-0.105417 -0.164164 0.771 0 0 0 184 186 176 255
-0.105143 -0.165063 0.769 0 0 0 192 194 201 255
-0.104733 -0.169699 0.766 0 0 0 138 54 75 255
-0.10446 -0.170572 0.764 0 0 0 123 37 87 255
-0.104049 -0.173836 0.761 0 0 0 134 56 75 255
-0.104049 -0.175148 0.761 0 0 0 134 54 73 255
-0.104049 -0.176459 0.761 0 0 0 132 52 71 255
-0.103776 -0.177303 0.759 0 0 0 134 56 75 255
-0.10446 -0.190319 0.764 0 0 0 190 145 162 255
-0.103503 -0.18988 0.757 0 0 0 190 173 233 255
-0.10647 -0.163738 0.769 0 0 0 188 190 180 255
-0.106055 -0.168379 0.766 0 0 0 128 78 73 255
-0.105778 -0.169256 0.764 0 0 0 123 39 61 255
-0.105778 -0.170572 0.764 0 0 0 128 41 91 255
-0.105363 -0.173836 0.761 0 0 0 130 52 71 255
-0.105363 -0.175148 0.761 0 0 0 130 50 69 255
-0.105086 -0.177303 0.759 0 0 0 130 52 71 255
-0.105086 -0.178611 0.759 0 0 0 138 56 67 255
-0.105086 -0.179919 0.759 0 0 0 136 71 39 255
-0.105086 -0.182534 0.759 0 0 0 146 52 81 255
-0.105086 -0.183842 0.759 0 0 0 142 54 81 255
-0.104394 -0.191726 0.754 0 0 0 196 203 186 255
-0.104117 -0.193809 0.752 0 0 0 199 201 190 255
-0.103776 -0.178611 0.759 0 0 0 136 54 65 255
-0.117873 -0.180749 0.757 0 0 0 146 48 69 255
-0.107517 -0.16199 0.767 0 0 0 192 192 192 255
-0.107517 -0.164634 0.767 0 0 0 194 186 198 255
-0.107097 -0.167939 0.764 0 0 0 138 63 93 255
-0.107097 -0.169256 0.764 0 0 0 132 43 71 255
-0.107097 -0.170572 0.764 0 0 0 128 48 67 255
-0.106676 -0.173836 0.761 0 0 0 132 48 55 255
-0.106396 -0.179919 0.759 0 0 0 140 58 69 255
-0.106396 -0.181227 0.759 0 0 0 138 58 69 255
-0.106115 -0.182053 0.757 0 0 0 142 63 73 255
-0.106115 -0.184662 0.757 0 0 0 142 76 75 255
-0.106396 -0.186458 0.759 0 0 0 146 69 91 255
-0.106115 -0.187271 0.757 0 0 0 140 71 77 255
-0.105975 -0.188326 0.756 0 0 0 159 80 89 255
-0.105414 -0.189922 0.752 0 0 0 182 192 188 255
-0.105274 -0.193551 0.751 0 0 0 203 190 201 255
-0.105274 -0.196139 0.751 0 0 0 213 186 194 255
-0.105274 -0.198727 0.751 0 0 0 222 203 198 255
-0.110458 -0.190963 0.751 0 0 0 125 41 63 255
-0.108728 -0.17814 0.757 0 0 0 140 50 63 255
-0.105086 -0.181227 0.759 0 0 0 140 56 81 255
-0.108415 -0.169256 0.764 0 0 0 134 45 73 255
-0.108131 -0.171439 0.762 0 0 0 136 41 71 255
-0.107989 -0.172525 0.761 0 0 0 134 43 53 255
-0.107989 -0.173836 0.761 0 0 0 132 48 55 255
-0.107705 -0.174687 0.759 0 0 0 128 48 67 255
-0.107705 -0.179919 0.759 0 0 0 140 58 69 255
-0.10487 -0.165955 0.767 0 0 0 213 205 219 255
-0.107422 -0.182053 0.757 0 0 0 142 63 73 255
-0.10487 -0.167277 0.767 0 0 0 182 149 162 255
-0.107422 -0.183358 0.757 0 0 0 142 63 73 255
-0.107422 -0.184662 0.757 0 0 0 140 73 73 255
-0.106712 -0.188626 0.752 0 0 0 132 95 57 255
-0.106712 -0.189922 0.752 0 0 0 178 188 184 255
-0.103776 -0.179919 0.759 0 0 0 134 69 37 255
-0.106286 -0.195617 0.749 0 0 0 209 182 190 255
-0.10657 -0.198727 0.751 0 0 0 209 190 186 255
-0.102682 -0.196139 0.751 0 0 0 196 199 188 255
-0.108584 -0.185721 0.756 0 0 0 148 73 81 255
-0.110021 -0.163099 0.766 0 0 0 196 190 192 255
-0.110021 -0.164419 0.766 0 0 0 182 171 166 255
-0.109733 -0.169256 0.764 0 0 0 130 45 71 255
-0.109303 -0.171214 0.761 0 0 0 132 48 55 255
-0.109015 -0.174687 0.759 0 0 0 136 41 57 255
-0.108728 -0.176836 0.757 0 0 0 140 43 77 255
-0.108728 -0.182053 0.757 0 0 0 140 58 69 255
-0.108728 -0.183358 0.757 0 0 0 142 63 73 255
-0.108728 -0.184662 0.757 0 0 0 142 63 73 255
-0.10801 -0.189922 0.752 0 0 0 199 151 146 255
-0.107866 -0.193551 0.751 0 0 0 209 169 164 255
-0.107579 -0.195617 0.749 0 0 0 153 78 107 255
-0.103978 -0.194845 0.751 0 0 0 192 199 186 255
-0.103978 -0.196139 0.751 0 0 0 194 197 186 255
-0.111343 -0.163099 0.766 0 0 0 199 192 194 255
-0.111343 -0.164419 0.766 0 0 0 171 160 156 255
-0.111052 -0.165306 0.764 0 0 0 182 143 144 255
-0.111052 -0.167939 0.764 0 0 0 134 30 63 255
-0.110761 -0.168813 0.762 0 0 0 136 52 77 255
-0.110761 -0.170126 0.762 0 0 0 134 50 57 255
-0.110325 -0.172072 0.759 0 0 0 132 43 71 255
-0.110034 -0.17814 0.757 0 0 0 140 50 63 255
-0.110034 -0.182053 0.757 0 0 0 140 58 69 255
-0.110034 -0.184662 0.757 0 0 0 142 63 73 255
-0.109889 -0.185721 0.756 0 0 0 144 69 77 255
-0.109598 -0.187828 0.754 0 0 0 142 61 85 255
-0.109308 -0.188626 0.752 0 0 0 142 69 99 255
-0.109308 -0.189922 0.752 0 0 0 161 112 109 255
-0.109162 -0.190963 0.751 0 0 0 182 151 87 255
-0.109162 -0.192257 0.751 0 0 0 178 147 146 255
-0.109162 -0.193551 0.751 0 0 0 173 132 130 255
-0.109162 -0.194845 0.751 0 0 0 142 76 103 255
-0.108872 -0.195617 0.749 0 0 0 136 61 91 255
-0.100757 -0.193537 0.756 0 0 0 209 203 203 255
-0.111194 -0.185721 0.756 0 0 0 138 58 69 255
-0.11237 -0.165306 0.764 0 0 0 192 143 152 255
-0.112076 -0.170126 0.762 0 0 0 138 48 61 255
-0.111929 -0.171214 0.761 0 0 0 136 45 59 255
-0.111635 -0.172072 0.759 0 0 0 138 43 59 255
-0.111635 -0.175995 0.759 0 0 0 138 43 59 255
-0.111341 -0.17814 0.757 0 0 0 138 48 61 255
-0.111341 -0.184662 0.757 0 0 0 144 58 71 255
-0.110899 -0.187828 0.754 0 0 0 132 43 71 255
-0.110458 -0.192257 0.751 0 0 0 138 48 57 255
-0.110164 -0.195617 0.749 0 0 0 146 78 83 255
-0.110458 -0.198727 0.751 0 0 0 134 69 69 255
-0.113242 -0.171214 0.761 0 0 0 140 50 63 255
-0.112945 -0.172072 0.759 0 0 0 140 45 61 255
-0.112647 -0.17814 0.757 0 0 0 140 50 63 255
-0.112647 -0.179445 0.757 0 0 0 142 52 65 255
-0.111754 -0.189669 0.751 0 0 0 134 39 69 255
-0.111754 -0.190963 0.751 0 0 0 128 43 65 255
-0.111754 -0.192257 0.751 0 0 0 134 43 53 255
-0.111457 -0.195617 0.749 0 0 0 146 78 83 255
-0.113953 -0.183358 0.757 0 0 0 148 52 81 255
-0.113953 -0.176836 0.757 0 0 0 153 39 71 255
-0.114556 -0.169902 0.761 0 0 0 157 54 49 255
-0.114556 -0.171214 0.761 0 0 0 157 54 49 255
-0.114255 -0.172072 0.759 0 0 0 153 45 43 255
-0.114255 -0.174687 0.759 0 0 0 153 39 71 255
-0.113953 -0.175531 0.757 0 0 0 153 39 71 255
-0.113953 -0.17814 0.757 0 0 0 157 43 75 255
-0.113953 -0.179445 0.757 0 0 0 146 41 79 255
-0.113953 -0.184662 0.757 0 0 0 157 48 77 255
-0.11305 -0.190963 0.751 0 0 0 134 52 63 255
-0.112749 -0.191745 0.749 0 0 0 144 58 71 255
-0.112749 -0.195617 0.749 0 0 0 148 73 81 255
-0.115869 -0.169902 0.761 0 0 0 155 52 47 255
-0.115869 -0.171214 0.761 0 0 0 155 52 47 255
-0.115564 -0.172072 0.759 0 0 0 153 45 43 255
-0.115564 -0.174687 0.759 0 0 0 153 39 71 255
-0.11526 -0.175531 0.757 0 0 0 153 39 71 255
-0.11526 -0.176836 0.757 0 0 0 155 41 73 255
-0.11526 -0.17814 0.757 0 0 0 153 39 71 255
-0.11526 -0.180749 0.757 0 0 0 146 52 81 255
-0.11526 -0.182053 0.757 0 0 0 148 52 85 255
-0.11526 -0.183358 0.757 0 0 0 153 56 85 255
-0.115108 -0.185721 0.756 0 0 0 148 50 71 255
-0.114499 -0.18733 0.752 0 0 0 142 56 37 255
-0.114346 -0.190963 0.751 0 0 0 138 56 67 255
-0.114042 -0.191745 0.749 0 0 0 142 56 69 255
-0.114042 -0.195617 0.749 0 0 0 150 76 83 255
-0.114346 -0.198727 0.751 0 0 0 138 65 95 255
-0.117644 -0.165306 0.764 0 0 0 184 136 117 255
-0.117336 -0.170126 0.762 0 0 0 163 45 77 255
-0.117182 -0.171214 0.761 0 0 0 161 48 51 255
-0.116874 -0.175995 0.759 0 0 0 163 50 53 255
-0.116566 -0.17814 0.757 0 0 0 163 45 77 255
-0.116874 -0.182534 0.759 0 0 0 159 45 77 255
-0.115796 -0.18733 0.752 0 0 0 157 43 47 255
-0.115642 -0.190963 0.751 0 0 0 159 45 77 255
-0.115334 -0.194326 0.749 0 0 0 157 71 55 255
-0.115334 -0.195617 0.749 0 0 0 167 67 61 255
-0.115642 -0.198727 0.751 0 0 0 150 56 39 255
-0.0969281 -0.173885 0.767 0 0 0 203 190 194 255
-0.0952305 -0.183737 0.764 0 0 0 205 199 199 255
-0.111457 -0.194326 0.749 0 0 0 146 71 79 255
-0.118963 -0.166623 0.764 0 0 0 159 56 51 255
-0.118651 -0.170126 0.762 0 0 0 163 45 77 255
-0.118495 -0.171214 0.761 0 0 0 163 50 53 255
-0.117873 -0.176836 0.757 0 0 0 163 45 77 255
-0.117873 -0.17814 0.757 0 0 0 163 45 77 255
-0.117873 -0.188576 0.757 0 0 0 163 50 53 255
-0.116938 -0.190963 0.751 0 0 0 155 41 73 255
-0.116938 -0.198727 0.751 0 0 0 142 48 31 255
-0.112749 -0.194326 0.749 0 0 0 150 76 83 255
-0.120596 -0.168379 0.766 0 0 0 163 56 57 255
-0.119494 -0.174687 0.759 0 0 0 165 50 53 255
-0.119179 -0.176836 0.757 0 0 0 165 56 63 255
-0.119021 -0.179208 0.756 0 0 0 167 56 45 255
-0.119494 -0.182534 0.759 0 0 0 157 43 75 255
-0.119179 -0.187271 0.757 0 0 0 167 63 63 255
-0.118234 -0.190963 0.751 0 0 0 161 39 73 255
-0.118234 -0.194845 0.751 0 0 0 163 63 83 255
-0.118234 -0.197433 0.751 0 0 0 173 69 73 255
-0.121918 -0.168379 0.766 0 0 0 161 54 55 255
-0.121281 -0.172752 0.762 0 0 0 173 50 61 255
-0.120804 -0.174687 0.759 0 0 0 169 54 57 255
-0.120326 -0.176602 0.756 0 0 0 171 63 69 255
-0.120804 -0.182534 0.759 0 0 0 153 39 71 255
-0.120804 -0.183842 0.759 0 0 0 161 65 61 255
-0.103141 -0.18637 0.764 0 0 0 167 125 45 255
-0.122113 -0.174687 0.759 0 0 0 182 50 69 255
-0.121631 -0.177905 0.756 0 0 0 188 78 69 255
-0.121631 -0.179208 0.756 0 0 0 173 67 63 255
-0.106115 -0.183358 0.757 0 0 0 140 61 71 255
-0.105274 -0.194845 0.751 0 0 0 209 188 194 255
-0.100354 -0.168586 0.773 0 0 0 215 214 221 255
-0.118234 -0.196139 0.751 0 0 0 167 67 65 255
-0.10657 -0.193551 0.751 0 0 0 207 194 205 255
-0.10657 -0.194845 0.751 0 0 0 213 192 198 255
-0.110034 -0.183358 0.757 0 0 0 138 58 69 255
-0.104049 -0.181704 0.761 0 0 0 136 52 77 255
-0.11953 -0.196139 0.751 0 0 0 169 69 67 255
-0.111341 -0.183358 0.757 0 0 0 144 58 71 255
-0.110605 -0.189922 0.752 0 0 0 138 43 73 255
-0.0981236 -0.185538 0.766 0 0 0 199 199 198 255
-0.120826 -0.196139 0.751 0 0 0 173 65 93 255
-0.112647 -0.183358 0.757 0 0 0 142 56 69 255
-0.120326 -0.177905 0.756 0 0 0 171 63 69 255
-0.0994455 -0.184218 0.766 0 0 0 224 197 196 255
-0.0994455 -0.185538 0.766 0 0 0 228 194 190 255
-0.114499 -0.188626 0.752 0 0 0 138 50 27 255
-0.115796 -0.188626 0.752 0 0 0 159 45 49 255
-0.100899 -0.171242 0.767 0 0 0 178 160 190 255
-0.100504 -0.174522 0.764 0 0 0 180 140 138 255
-0.100504 -0.175838 0.764 0 0 0 196 166 117 255
-0.101556 -0.18063 0.762 0 0 0 150 67 69 255
-0.0981236 -0.188178 0.766 0 0 0 201 201 199 255
-0.101823 -0.183737 0.764 0 0 0 169 89 97 255
-0.100757 -0.192234 0.756 0 0 0 201 203 192 255
-0.102089 -0.188178 0.766 0 0 0 211 177 156 255
-0.0994455 -0.173659 0.766 0 0 0 194 156 170 255
-0.100767 -0.173659 0.766 0 0 0 178 138 154 255
-0.0941579 -0.181578 0.766 0 0 0 211 199 201 255
-0.116874 -0.183842 0.759 0 0 0 159 50 79 255
-0.112498 -0.185721 0.756 0 0 0 138 58 69 255
-0.118392 -0.189922 0.752 0 0 0 161 39 73 255
-0.102819 -0.193809 0.752 0 0 0 199 201 190 255
-0.118184 -0.183842 0.759 0 0 0 159 50 79 255
-0.113803 -0.185721 0.756 0 0 0 148 50 71 255
-0.120596 -0.169699 0.766 0 0 0 176 56 65 255
-0.103141 -0.189003 0.764 0 0 0 209 190 182 255
-0.119494 -0.183842 0.759 0 0 0 161 65 61 255
-0.104733 -0.168379 0.766 0 0 0 157 108 101 255
-0.118495 -0.173836 0.761 0 0 0 163 50 53 255
-0.116874 -0.181227 0.759 0 0 0 146 48 69 255
-0.110605 -0.188626 0.752 0 0 0 142 48 77 255
-0.119021 -0.177905 0.756 0 0 0 167 58 65 255
-0.111052 -0.166623 0.764 0 0 0 140 45 61 255
-0.092836 -0.184218 0.766 0 0 0 203 197 198 255
-0.103092 -0.193025 0.754 0 0 0 196 199 188 255
-0.0941579 -0.182898 0.766 0 0 0 205 199 199 255
-0.117094 -0.188626 0.752 0 0 0 163 50 53 255
-0.110021 -0.165739 0.766 0 0 0 182 143 144 255
-0.105501 -0.171439 0.762 0 0 0 130 50 83 255
-0.107866 -0.190963 0.751 0 0 0 207 177 111 255
-0.102061 -0.192234 0.756 0 0 0 201 203 192 255
-0.101823 -0.185053 0.764 0 0 0 171 106 57 255
-0.111635 -0.174687 0.759 0 0 0 142 41 59 255
-0.10089 -0.191184 0.757 0 0 0 199 201 190 255
-0.107579 -0.196908 0.749 0 0 0 165 84 93 255
-0.10801 -0.188626 0.752 0 0 0 136 63 93 255
-0.103978 -0.197433 0.751 0 0 0 203 197 198 255
-0.108872 -0.196908 0.749 0 0 0 136 54 65 255
-0.116874 -0.174687 0.759 0 0 0 159 45 49 255
-0.101823 -0.190319 0.764 0 0 0 209 199 192 255
-0.112945 -0.174687 0.759 0 0 0 142 41 59 255
-0.109303 -0.172525 0.761 0 0 0 132 43 71 255
-0.115642 -0.192257 0.751 0 0 0 157 56 51 255
-0.118234 -0.192257 0.751 0 0 0 161 43 75 255
-0.108728 -0.179445 0.757 0 0 0 138 63 35 255
-0.116938 -0.192257 0.751 0 0 0 157 56 51 255
-0.11953 -0.192257 0.751 0 0 0 163 45 77 255
-0.114042 -0.196908 0.749 0 0 0 144 67 89 255
-0.104186 -0.185882 0.762 0 0 0 134 50 85 255
-0.115334 -0.196908 0.749 0 0 0 165 65 59 255
-0.111341 -0.179445 0.757 0 0 0 140 50 63 255
-0.102196 -0.191184 0.757 0 0 0 196 199 188 255
-0.100504 -0.177155 0.764 0 0 0 196 166 164 255
-0.103503 -0.191184 0.757 0 0 0 190 199 207 255
-0.102736 -0.180393 0.761 0 0 0 119 35 39 255
-0.103366 -0.192234 0.756 0 0 0 196 203 186 255
-0.116938 -0.193551 0.751 0 0 0 155 69 53 255
-0.103141 -0.190319 0.764 0 0 0 213 203 196 255
-0.119689 -0.197696 0.752 0 0 0 178 73 77 255
-0.116326 -0.166623 0.764 0 0 0 161 45 45 255
-0.116326 -0.167939 0.764 0 0 0 148 30 63 255
-0.118234 -0.193551 0.751 0 0 0 163 58 85 255
-0.099835 -0.169038 0.769 0 0 0 192 190 203 255
-0.11953 -0.193551 0.751 0 0 0 159 54 81 255
-0.10446 -0.171889 0.764 0 0 0 130 50 83 255
-0.118184 -0.182534 0.759 0 0 0 155 41 73 255
-0.117644 -0.167939 0.764 0 0 0 159 37 71 255
-0.119809 -0.172525 0.761 0 0 0 173 50 61 255
-0.117873 -0.179445 0.757 0 0 0 159 56 51 255
-0.105414 -0.191217 0.752 0 0 0 205 201 192 255
-0.106712 -0.191217 0.752 0 0 0 209 205 196 255
-0.112664 -0.163099 0.766 0 0 0 207 190 168 255
-0.102736 -0.181704 0.761 0 0 0 132 48 23 255
-0.103546 -0.167277 0.767 0 0 0 199 182 209 255
-0.112201 -0.187828 0.754 0 0 0 132 43 71 255
-0.113986 -0.163099 0.766 0 0 0 205 188 166 255
-0.108699 -0.164419 0.766 0 0 0 186 177 190 255
-0.117094 -0.189922 0.752 0 0 0 161 45 45 255
-0.116627 -0.195617 0.749 0 0 0 161 61 55 255
-0.113953 -0.180749 0.757 0 0 0 146 52 81 255
-0.118963 -0.169256 0.764 0 0 0 163 56 57 255
-0.107422 -0.185967 0.757 0 0 0 144 67 89 255
-0.121631 -0.176602 0.756 0 0 0 178 67 59 255
-0.110034 -0.180749 0.757 0 0 0 136 54 65 255
-0.111341 -0.180749 0.757 0 0 0 138 58 69 255
-0.112076 -0.168813 0.762 0 0 0 144 45 67 255
-0.118184 -0.175995 0.759 0 0 0 161 48 51 255
-0.112647 -0.180749 0.757 0 0 0 140 61 71 255
-0.101556 -0.176691 0.762 0 0 0 125 52 51 255
-0.110325 -0.174687 0.759 0 0 0 136 41 57 255
-0.106396 -0.174687 0.759 0 0 0 128 48 67 255
-0.113391 -0.168813 0.762 0 0 0 146 48 69 255
-0.11237 -0.16399 0.764 0 0 0 173 153 144 255
-0.114706 -0.168813 0.762 0 0 0 157 56 51 255
-0.116021 -0.168813 0.762 0 0 0 157 56 51 255
-0.0954798 -0.174978 0.766 0 0 0 205 194 188 255
-0.0954798 -0.176298 0.766 0 0 0 207 194 198 255
-0.121599 -0.171889 0.764 0 0 0 173 54 63 255
-0.122935 -0.176602 0.756 0 0 0 184 73 65 255
-0.092836 -0.182898 0.766 0 0 0 203 199 190 255
-0.106996 -0.187828 0.754 0 0 0 142 63 73 255
-0.116566 -0.179445 0.757 0 0 0 155 52 47 255
-0.115564 -0.173379 0.759 0 0 0 153 45 43 255
-0.108297 -0.187828 0.754 0 0 0 150 69 93 255
-0.0994455 -0.176298 0.766 0 0 0 211 182 132 255
-0.117644 -0.166623 0.764 0 0 0 157 54 49 255
-0.0981236 -0.182898 0.766 0 0 0 199 194 186 255
-0.105086 -0.18515 0.759 0 0 0 142 58 93 255
-0.0994455 -0.182898 0.766 0 0 0 226 197 196 255
-0.10647 -0.162413 0.769 0 0 0 190 190 190 255
-0.115642 -0.189669 0.751 0 0 0 155 39 39 255
-0.118963 -0.167939 0.764 0 0 0 157 35 69 255
-0.102819 -0.195105 0.752 0 0 0 194 201 188 255
-0.092836 -0.186858 0.766 0 0 0 205 197 207 255
-0.096549 -0.183737 0.764 0 0 0 203 197 198 255
-0.119494 -0.186458 0.759 0 0 0 169 69 67 255
-0.110034 -0.179445 0.757 0 0 0 136 61 33 255
-0.105086 -0.175995 0.759 0 0 0 132 52 71 255
-0.106396 -0.175995 0.759 0 0 0 130 45 53 255
-0.102489 -0.167713 0.769 0 0 0 201 184 211 255
-0.113689 -0.16399 0.764 0 0 0 169 149 140 255
-0.103141 -0.187686 0.764 0 0 0 190 156 136 255
-0.114255 -0.173379 0.759 0 0 0 155 48 45 255
-0.104394 -0.190427 0.754 0 0 0 192 201 209 255
-0.106396 -0.177303 0.759 0 0 0 136 52 59 255
-0.102736 -0.17777 0.761 0 0 0 119 35 39 255
-0.11305 -0.189669 0.751 0 0 0 136 52 59 255
-0.107705 -0.177303 0.759 0 0 0 134 50 57 255
-0.118184 -0.186458 0.759 0 0 0 161 61 55 255
-0.114346 -0.189669 0.751 0 0 0 134 50 57 255
-0.101823 -0.18637 0.764 0 0 0 194 153 71 255
-0.110325 -0.173379 0.759 0 0 0 138 43 59 255
-0.106286 -0.196908 0.749 0 0 0 211 182 182 255
-0.0994455 -0.174978 0.766 0 0 0 211 173 168 255
-0.104186 -0.172752 0.762 0 0 0 136 56 75 255
-0.117182 -0.172525 0.761 0 0 0 159 45 49 255
-0.117182 -0.173836 0.761 0 0 0 161 48 51 255
-0.118495 -0.172525 0.761 0 0 0 161 48 51 255
-0.0981236 -0.189498 0.766 0 0 0 201 201 199 255
-0.120804 -0.18515 0.759 0 0 0 169 69 67 255
-0.108728 -0.180749 0.757 0 0 0 140 58 69 255
-0.100899 -0.189745 0.767 0 0 0 205 201 188 255
-0.119179 -0.175531 0.757 0 0 0 167 54 61 255
-0.107705 -0.178611 0.759 0 0 0 134 52 59 255
-0.106816 -0.171439 0.762 0 0 0 136 41 71 255
-0.120485 -0.175531 0.757 0 0 0 171 58 65 255
-0.111903 -0.188626 0.752 0 0 0 136 41 71 255
-0.116566 -0.185967 0.757 0 0 0 150 50 45 255
-0.121792 -0.175531 0.757 0 0 0 182 67 61 255
-0.113201 -0.18733 0.752 0 0 0 140 54 35 255
-0.113201 -0.188626 0.752 0 0 0 140 52 29 255
-0.111341 -0.182053 0.757 0 0 0 144 58 71 255
-0.0981236 -0.177618 0.766 0 0 0 205 201 192 255
-0.113502 -0.186529 0.754 0 0 0 142 41 59 255
-0.109889 -0.187024 0.756 0 0 0 142 73 79 255
-0.109733 -0.167939 0.764 0 0 0 138 35 67 255
-0.105414 -0.192513 0.752 0 0 0 199 190 201 255
-0.102061 -0.193537 0.756 0 0 0 203 197 198 255
-0.113689 -0.166623 0.764 0 0 0 153 39 71 255
-0.114042 -0.194326 0.749 0 0 0 146 71 79 255
-0.115007 -0.166623 0.764 0 0 0 161 45 45 255
-0.0969281 -0.172564 0.767 0 0 0 192 186 188 255
-0.105086 -0.187766 0.759 0 0 0 130 69 29 255
-0.107422 -0.180749 0.757 0 0 0 138 58 69 255
-0.0991858 -0.178471 0.764 0 0 0 228 199 194 255
-0.112749 -0.196908 0.749 0 0 0 140 63 85 255
-0.109733 -0.166623 0.764 0 0 0 150 56 71 255
-0.113242 -0.169902 0.761 0 0 0 140 50 63 255
-0.114042 -0.193036 0.749 0 0 0 148 67 77 255
-0.105501 -0.172752 0.762 0 0 0 128 48 67 255
-0.116627 -0.196908 0.749 0 0 0 161 61 55 255
-0.11237 -0.167939 0.764 0 0 0 138 32 53 255
-0.106193 -0.164634 0.767 0 0 0 188 190 198 255
-0.106676 -0.172525 0.761 0 0 0 136 45 55 255
-0.0995753 -0.172564 0.767 0 0 0 199 156 180 255
-0.121631 -0.18051 0.756 0 0 0 165 48 57 255
-0.104186 -0.188508 0.762 0 0 0 144 84 43 255
-0.100899 -0.191067 0.767 0 0 0 196 197 196 255
-0.0981236 -0.176298 0.766 0 0 0 219 201 196 255
-0.116627 -0.194326 0.749 0 0 0 157 71 55 255
-0.0968017 -0.176298 0.766 0 0 0 215 197 192 255
-0.0968017 -0.178938 0.766 0 0 0 205 197 184 255
-0.100899 -0.172564 0.767 0 0 0 184 140 166 255
-0.111194 -0.187024 0.756 0 0 0 140 52 79 255
-0.112498 -0.187024 0.756 0 0 0 136 48 75 255
-0.108699 -0.163099 0.766 0 0 0 196 192 180 255
-0.107517 -0.163312 0.767 0 0 0 194 190 178 255
-0.10728 -0.187024 0.756 0 0 0 146 78 83 255
-0.0941579 -0.186858 0.766 0 0 0 205 197 207 255
-0.0982517 -0.172564 0.767 0 0 0 192 186 188 255
-0.108584 -0.187024 0.756 0 0 0 144 76 81 255
-0.0954798 -0.186858 0.766 0 0 0 203 194 205 255
-0.120326 -0.179208 0.756 0 0 0 173 63 51 255
-0.112647 -0.176836 0.757 0 0 0 142 41 59 255
-0.100767 -0.185538 0.766 0 0 0 234 201 196 255
-0.103411 -0.169699 0.766 0 0 0 140 91 121 255
-0.102871 -0.174065 0.762 0 0 0 128 48 67 255
-0.110616 -0.171214 0.761 0 0 0 134 50 57 255
-0.108699 -0.167059 0.766 0 0 0 138 73 95 255
-0.0991858 -0.177155 0.764 0 0 0 222 192 188 255
-0.106396 -0.178611 0.759 0 0 0 132 50 57 255
-0.0981236 -0.184218 0.766 0 0 0 201 194 196 255
-0.113689 -0.167939 0.764 0 0 0 136 30 51 255
-0.112749 -0.198198 0.749 0 0 0 132 58 89 255
-0.110325 -0.175995 0.759 0 0 0 136 39 73 255
-0.100767 -0.186858 0.766 0 0 0 222 203 198 255
-0.107705 -0.175995 0.759 0 0 0 132 48 55 255
-0.104809 -0.18988 0.757 0 0 0 169 151 213 255
-0.0954798 -0.180258 0.766 0 0 0 209 197 199 255
-0.107866 -0.192257 0.751 0 0 0 201 171 168 255
-0.113953 -0.182053 0.757 0 0 0 150 54 87 255
-0.112647 -0.175531 0.757 0 0 0 138 43 59 255
-0.111341 -0.176836 0.757 0 0 0 142 41 59 255
-0.0954798 -0.178938 0.766 0 0 0 203 197 198 255
-0.102223 -0.189745 0.767 0 0 0 219 201 192 255
-0.104809 -0.188576 0.757 0 0 0 178 132 150 255
-0.10657 -0.192257 0.751 0 0 0 203 194 205 255
-0.116566 -0.176836 0.757 0 0 0 159 41 73 255
-0.105414 -0.188626 0.752 0 0 0 159 123 83 255
-0.0954798 -0.177618 0.766 0 0 0 203 197 198 255
-0.101162 -0.169038 0.769 0 0 0 182 179 194 255
-0.112647 -0.182053 0.757 0 0 0 144 58 71 255
-0.108415 -0.167939 0.764 0 0 0 128 52 83 255
-0.101556 -0.179317 0.762 0 0 0 140 56 59 255
-0.11526 -0.179445 0.757 0 0 0 146 41 79 255
-0.123098 -0.175531 0.757 0 0 0 182 67 61 255
-0.0995753 -0.189745 0.767 0 0 0 203 199 186 255
-0.11237 -0.166623 0.764 0 0 0 155 41 73 255
-0.105274 -0.197433 0.751 0 0 0 222 192 192 255
-0.110034 -0.176836 0.757 0 0 0 138 41 75 255
-0.0968017 -0.188178 0.766 0 0 0 201 201 199 255
-0.0968017 -0.180258 0.766 0 0 0 207 197 190 255
