ply
format ascii 1.0
element vertex 1144
property float x
property float y
property float z
property float normal_x
property float normal_y
property float normal_z
property uchar red
property uchar green
property uchar blue
property uchar alpha
end_header
-0.598558 -0.373358 1.126 0 0 0 0 0 0 255
-0.594737 -0.251772 1.13 0 0 0 0 0 0 255
-0.596719 -0.202211 1.13 0 0 0 0 0 0 255
-0.598702 -0.370719 1.13 0 0 0 0 0 0 255
-0.598614 -0.353544 1.145 0 0 0 0 0 0 255
-0.596795 -0.254605 1.161 0 0 0 0 0 0 255
-0.596789 -0.275758 1.173 0 0 0 0 0 0 255
-0.595017 -0.304337 1.112 0 0 0 0 0 0 255
-0.600705 -0.171342 1.149 0 0 0 0 0 0 255
-0.600705 -0.173358 1.149 0 0 0 0 0 0 255
-0.594667 -0.238649 1.115 0 0 0 0 0 0 255
-0.594667 -0.240605 1.115 0 0 0 0 0 0 255
-0.590933 -0.266309 1.108 0 0 0 0 0 0 255
-0.595017 -0.249712 1.112 0 0 0 0 0 0 255
-0.598919 -0.161923 1.112 0 0 0 0 0 0 255
-0.596795 -0.264789 1.161 0 0 0 0 0 0 255
-0.594737 -0.313228 1.13 0 0 0 0 0 0 255
-0.594954 -0.249561 1.138 0 0 0 0 0 0 255
-0.598737 -0.237 1.185 0 0 0 0 0 0 255
-0.596765 -0.225488 1.108 0 0 0 0 0 0 255
-0.594644 -0.269351 1.181 0 0 0 0 0 0 255
-0.598856 -0.196884 1.169 0 0 0 0 0 0 255
-0.595149 -0.271403 1.105 0 0 0 0 0 0 255
-0.596795 -0.240347 1.161 0 0 0 0 0 0 255
-0.598832 -0.175168 1.161 0 0 0 0 0 0 255
-0.594521 -0.284249 1.141 0 0 0 0 0 0 255
-0.598751 -0.186098 1.153 0 0 0 0 0 0 255
-0.602689 -0.361221 1.119 0 0 0 0 0 0 255
-0.594837 -0.331774 1.119 0 0 0 0 0 0 255
-0.594837 -0.333737 1.119 0 0 0 0 0 0 255
-0.594667 -0.254298 1.115 0 0 0 0 0 0 255
-0.590754 -0.312982 1.115 0 0 0 0 0 0 255
-0.5945 -0.252402 1.189 0 0 0 0 0 0 255
-0.598919 -0.282877 1.112 0 0 0 0 0 0 255
-0.602689 -0.347479 1.119 0 0 0 0 0 0 255
-0.59676 -0.268439 1.177 0 0 0 0 0 0 255
-0.598768 -0.209463 1.206 0 0 0 0 0 0 255
-0.596807 -0.20643 1.165 0 0 0 0 0 0 255
-0.596674 -0.292289 1.149 0 0 0 0 0 0 255
-0.598832 -0.350147 1.134 0 0 0 0 0 0 255
-0.596795 -0.299416 1.161 0 0 0 0 0 0 255
-0.60646 -0.389161 1.126 0 0 0 0 0 0 255
-0.596658 -0.193342 1.185 0 0 0 0 0 0 255
-0.592877 -0.316849 1.108 0 0 0 0 0 0 255
-0.594739 -0.211102 1.157 0 0 0 0 0 0 255
-0.598788 -0.215481 1.181 0 0 0 0 0 0 255
-0.596716 -0.263135 1.181 0 0 0 0 0 0 255
-0.592995 -0.310984 1.101 0 0 0 0 0 0 255
-0.592995 -0.312916 1.101 0 0 0 0 0 0 255
-0.596674 -0.177389 1.149 0 0 0 0 0 0 255
-0.594667 -0.303202 1.115 0 0 0 0 0 0 255
-0.598798 -0.221251 1.157 0 0 0 0 0 0 255
-0.598856 -0.270716 1.169 0 0 0 0 0 0 255
-0.600533 -0.379284 1.126 0 0 0 0 0 0 255
-0.596765 -0.324625 1.108 0 0 0 0 0 0 255
-0.594993 -0.175346 1.123 0 0 0 0 0 0 255
-0.596605 -0.357561 1.145 0 0 0 0 0 0 255
-0.594954 -0.229596 1.138 0 0 0 0 0 0 255
-0.591116 -0.275074 1.112 0 0 0 0 0 0 255
-0.600535 -0.156491 1.115 0 0 0 0 0 0 255
-0.592877 -0.309074 1.108 0 0 0 0 0 0 255
-0.596768 -0.219221 1.157 0 0 0 0 0 0 255
-0.59676 -0.22714 1.177 0 0 0 0 0 0 255
-0.596768 -0.239519 1.157 0 0 0 0 0 0 255
-0.596842 -0.324284 1.134 0 0 0 0 0 0 255
-0.596789 -0.246947 1.173 0 0 0 0 0 0 255
-0.596789 -0.226368 1.173 0 0 0 0 0 0 255
-0.596842 -0.266589 1.134 0 0 0 0 0 0 255
-0.596951 -0.229596 1.138 0 0 0 0 0 0 255
-0.596765 -0.3324 1.108 0 0 0 0 0 0 255
-0.594737 -0.24186 1.13 0 0 0 0 0 0 255
-0.600533 -0.355579 1.126 0 0 0 0 0 0 255
-0.600904 -0.362512 1.123 0 0 0 0 0 0 255
-0.594737 -0.287456 1.13 0 0 0 0 0 0 255
-0.598832 -0.210884 1.134 0 0 0 0 0 0 255
-0.598832 -0.218842 1.134 0 0 0 0 0 0 255
-0.598798 -0.219221 1.157 0 0 0 0 0 0 255
-0.598919 -0.159972 1.112 0 0 0 0 0 0 255
-0.597088 -0.362518 1.105 0 0 0 0 0 0 255
-0.598847 -0.185211 1.173 0 0 0 0 0 0 255
-0.59676 -0.223011 1.177 0 0 0 0 0 0 255
-0.595017 -0.3336 1.112 0 0 0 0 0 0 255
-0.600684 -0.208158 1.13 0 0 0 0 0 0 255
-0.598825 -0.198232 1.177 0 0 0 0 0 0 255
-0.596951 -0.343396 1.138 0 0 0 0 0 0 255
-0.59271 -0.287553 1.115 0 0 0 0 0 0 255
-0.598933 -0.350691 1.123 0 0 0 0 0 0 255
-0.598856 -0.266614 1.169 0 0 0 0 0 0 255
-0.596765 -0.252702 1.108 0 0 0 0 0 0 255
-0.598832 -0.161147 1.134 0 0 0 0 0 0 255
-0.598798 -0.196893 1.157 0 0 0 0 0 0 255
-0.594521 -0.362318 1.141 0 0 0 0 0 0 255
-0.594597 -0.293281 1.145 0 0 0 0 0 0 255
-0.595017 -0.263368 1.112 0 0 0 0 0 0 255
-0.600726 -0.208095 1.119 0 0 0 0 0 0 255
-0.596728 -0.275102 1.153 0 0 0 0 0 0 255
-0.596951 -0.319439 1.138 0 0 0 0 0 0 255
-0.595017 -0.331649 1.112 0 0 0 0 0 0 255
-0.592958 -0.271523 1.138 0 0 0 0 0 0 255
-0.596795 -0.242384 1.161 0 0 0 0 0 0 255
-0.592877 -0.252702 1.108 0 0 0 0 0 0 255
-0.596658 -0.220368 1.185 0 0 0 0 0 0 255
-0.592642 -0.320511 1.149 0 0 0 0 0 0 255
-0.596968 -0.284828 1.112 0 0 0 0 0 0 255
-0.594597 -0.321404 1.145 0 0 0 0 0 0 255
-0.596582 -0.18174 1.126 0 0 0 0 0 0 255
-0.594837 -0.227726 1.119 0 0 0 0 0 0 255
-0.593067 -0.321895 1.112 0 0 0 0 0 0 255
-0.5945 -0.219026 1.189 0 0 0 0 0 0 255
-0.5945 -0.22737 1.189 0 0 0 0 0 0 255
-0.594837 -0.172758 1.119 0 0 0 0 0 0 255
-0.596951 -0.265533 1.138 0 0 0 0 0 0 255
-0.596605 -0.339482 1.145 0 0 0 0 0 0 255
-0.598632 -0.193175 1.21 0 0 0 0 0 0 255
-0.600907 -0.235851 1.169 0 0 0 0 0 0 255
-0.593067 -0.310189 1.112 0 0 0 0 0 0 255
-0.596842 -0.262611 1.134 0 0 0 0 0 0 255
-0.598851 -0.181903 1.165 0 0 0 0 0 0 255
-0.596807 -0.202342 1.165 0 0 0 0 0 0 255
-0.596719 -0.333053 1.13 0 0 0 0 0 0 255
-0.598702 -0.204193 1.13 0 0 0 0 0 0 255
-0.596765 -0.219656 1.108 0 0 0 0 0 0 255
-0.594705 -0.260942 1.153 0 0 0 0 0 0 255
-0.600684 -0.390544 1.13 0 0 0 0 0 0 255
-0.596768 -0.249668 1.157 0 0 0 0 0 0 255
-0.598919 -0.284828 1.112 0 0 0 0 0 0 255
-0.596951 -0.345393 1.138 0 0 0 0 0 0 255
-0.596674 -0.346716 1.149 0 0 0 0 0 0 255
-0.592877 -0.311018 1.108 0 0 0 0 0 0 255
-0.598832 -0.262611 1.134 0 0 0 0 0 0 255
-0.594737 -0.196263 1.13 0 0 0 0 0 0 255
-0.594737 -0.198246 1.13 0 0 0 0 0 0 255
-0.594737 -0.289439 1.13 0 0 0 0 0 0 255
-0.594837 -0.235579 1.119 0 0 0 0 0 0 255
-0.598525 -0.348305 1.141 0 0 0 0 0 0 255
-0.594521 -0.216189 1.141 0 0 0 0 0 0 255
-0.596795 -0.272937 1.161 0 0 0 0 0 0 255
-0.596951 -0.357372 1.138 0 0 0 0 0 0 255
-0.596805 -0.295326 1.169 0 0 0 0 0 0 255
-0.596765 -0.330456 1.108 0 0 0 0 0 0 255
-0.596719 -0.352877 1.13 0 0 0 0 0 0 255
-0.598672 -0.210682 1.189 0 0 0 0 0 0 255
-0.596586 -0.219026 1.189 0 0 0 0 0 0 255
-0.596807 -0.210518 1.165 0 0 0 0 0 0 255
-0.596728 -0.291284 1.153 0 0 0 0 0 0 255
-0.598798 -0.207042 1.157 0 0 0 0 0 0 255
-0.594954 -0.273519 1.138 0 0 0 0 0 0 255
-0.596605 -0.194851 1.145 0 0 0 0 0 0 255
-0.598788 -0.24656 1.181 0 0 0 0 0 0 255
-0.591116 -0.247761 1.112 0 0 0 0 0 0 255
-0.596674 -0.181421 1.149 0 0 0 0 0 0 255
-0.598558 -0.375333 1.126 0 0 0 0 0 0 255
-0.596605 -0.218956 1.145 0 0 0 0 0 0 255
-0.596605 -0.220965 1.145 0 0 0 0 0 0 255
-0.598702 -0.384596 1.13 0 0 0 0 0 0 255
-0.596605 -0.235026 1.145 0 0 0 0 0 0 255
-0.596963 -0.344781 1.123 0 0 0 0 0 0 255
-0.594993 -0.269914 1.123 0 0 0 0 0 0 255
-0.596968 -0.3336 1.112 0 0 0 0 0 0 255
-0.596765 -0.260477 1.108 0 0 0 0 0 0 255
-0.594658 -0.328574 1.149 0 0 0 0 0 0 255
-0.598689 -0.175374 1.149 0 0 0 0 0 0 255
-0.598832 -0.181042 1.134 0 0 0 0 0 0 255
-0.598947 -0.189667 1.138 0 0 0 0 0 0 255
-0.598525 -0.354311 1.141 0 0 0 0 0 0 255
-0.596768 -0.274026 1.157 0 0 0 0 0 0 255
-0.598933 -0.346751 1.123 0 0 0 0 0 0 255
-0.592682 -0.315558 1.153 0 0 0 0 0 0 255
-0.598933 -0.197018 1.123 0 0 0 0 0 0 255
-0.598558 -0.369407 1.126 0 0 0 0 0 0 255
-0.596523 -0.220193 1.141 0 0 0 0 0 0 255
-0.598847 -0.290163 1.173 0 0 0 0 0 0 255
-0.594954 -0.275516 1.138 0 0 0 0 0 0 255
-0.600904 -0.350691 1.123 0 0 0 0 0 0 255
-0.594521 -0.318279 1.141 0 0 0 0 0 0 255
-0.594837 -0.341589 1.119 0 0 0 0 0 0 255
-0.597088 -0.31793 1.105 0 0 0 0 0 0 255
-0.598689 -0.346716 1.149 0 0 0 0 0 0 255
-0.606814 -0.386154 1.123 0 0 0 0 0 0 255
-0.598788 -0.244488 1.181 0 0 0 0 0 0 255
-0.594667 -0.230825 1.115 0 0 0 0 0 0 255
-0.598919 -0.183382 1.112 0 0 0 0 0 0 255
-0.592877 -0.320737 1.108 0 0 0 0 0 0 255
-0.596582 -0.231126 1.126 0 0 0 0 0 0 255
-0.5964 -0.2205 1.197 0 0 0 0 0 0 255
-0.602509 -0.375333 1.126 0 0 0 0 0 0 255
-0.596674 -0.235847 1.149 0 0 0 0 0 0 255
-0.596658 -0.234921 1.185 0 0 0 0 0 0 255
-0.592877 -0.260477 1.108 0 0 0 0 0 0 255
-0.595017 -0.239958 1.112 0 0 0 0 0 0 255
-0.596623 -0.166272 1.115 0 0 0 0 0 0 255
-0.596842 -0.356116 1.134 0 0 0 0 0 0 255
-0.598933 -0.157614 1.123 0 0 0 0 0 0 255
-0.594607 -0.355579 1.126 0 0 0 0 0 0 255
-0.598919 -0.212646 1.112 0 0 0 0 0 0 255
-0.598832 -0.3402 1.134 0 0 0 0 0 0 255
-0.598856 -0.18663 1.169 0 0 0 0 0 0 255
-0.5964 -0.2289 1.197 0 0 0 0 0 0 255
-0.596582 -0.327923 1.126 0 0 0 0 0 0 255
-0.593023 -0.297496 1.123 0 0 0 0 0 0 255
-0.596805 -0.293275 1.169 0 0 0 0 0 0 255
-0.598702 -0.372702 1.13 0 0 0 0 0 0 255
-0.596586 -0.189823 1.189 0 0 0 0 0 0 255
-0.596951 -0.209632 1.138 0 0 0 0 0 0 255
-0.596582 -0.355579 1.126 0 0 0 0 0 0 255
-0.598947 -0.229596 1.138 0 0 0 0 0 0 255
-0.594821 -0.326568 1.108 0 0 0 0 0 0 255
-0.596523 -0.188165 1.141 0 0 0 0 0 0 255
-0.596795 -0.252568 1.161 0 0 0 0 0 0 255
-0.596728 -0.240714 1.153 0 0 0 0 0 0 255
-0.594993 -0.173375 1.123 0 0 0 0 0 0 255
-0.596842 -0.216853 1.134 0 0 0 0 0 0 255
-0.593023 -0.291586 1.123 0 0 0 0 0 0 255
-0.598558 -0.355579 1.126 0 0 0 0 0 0 255
-0.594705 -0.267011 1.153 0 0 0 0 0 0 255
-0.602509 -0.383235 1.126 0 0 0 0 0 0 255
-0.602509 -0.387186 1.126 0 0 0 0 0 0 255
-0.592632 -0.298291 1.126 0 0 0 0 0 0 255
-0.598737 -0.203737 1.185 0 0 0 0 0 0 255
-0.598856 -0.231749 1.169 0 0 0 0 0 0 255
-0.598856 -0.293275 1.169 0 0 0 0 0 0 255
-0.598851 -0.292272 1.165 0 0 0 0 0 0 255
-0.596765 -0.264365 1.108 0 0 0 0 0 0 255
-0.598856 -0.2338 1.169 0 0 0 0 0 0 255
-0.604844 -0.368423 1.123 0 0 0 0 0 0 255
-0.595017 -0.179481 1.112 0 0 0 0 0 0 255
-0.595149 -0.302421 1.105 0 0 0 0 0 0 255
-0.596842 -0.224811 1.134 0 0 0 0 0 0 255
-0.598856 -0.254309 1.169 0 0 0 0 0 0 255
-0.592874 -0.312142 1.119 0 0 0 0 0 0 255
-0.592874 -0.239505 1.119 0 0 0 0 0 0 255
-0.598702 -0.160579 1.13 0 0 0 0 0 0 255
-0.596728 -0.297353 1.153 0 0 0 0 0 0 255
-0.594993 -0.238391 1.123 0 0 0 0 0 0 255
-0.596582 -0.353604 1.126 0 0 0 0 0 0 255
-0.5965 -0.198833 1.193 0 0 0 0 0 0 255
-0.594607 -0.306193 1.126 0 0 0 0 0 0 255
-0.5968 -0.265026 1.119 0 0 0 0 0 0 255
-0.598851 -0.277965 1.165 0 0 0 0 0 0 255
-0.592863 -0.298421 1.134 0 0 0 0 0 0 255
-0.594607 -0.239028 1.126 0 0 0 0 0 0 255
-0.591116 -0.310189 1.112 0 0 0 0 0 0 255
-0.598832 -0.212874 1.134 0 0 0 0 0 0 255
-0.600705 -0.167311 1.149 0 0 0 0 0 0 255
-0.598847 -0.246947 1.173 0 0 0 0 0 0 255
-0.594521 -0.2282 1.141 0 0 0 0 0 0 255
-0.59676 -0.183777 1.177 0 0 0 0 0 0 255
-0.598798 -0.22937 1.157 0 0 0 0 0 0 255
-0.594853 -0.286484 1.134 0 0 0 0 0 0 255
-0.594737 -0.200228 1.13 0 0 0 0 0 0 255
-0.598856 -0.287123 1.169 0 0 0 0 0 0 255
-0.596623 -0.213219 1.115 0 0 0 0 0 0 255
-0.596658 -0.224526 1.185 0 0 0 0 0 0 255
-0.600535 -0.195614 1.115 0 0 0 0 0 0 255
-0.596795 -0.266826 1.161 0 0 0 0 0 0 255
-0.592995 -0.309053 1.101 0 0 0 0 0 0 255
-0.594993 -0.191107 1.123 0 0 0 0 0 0 255
-0.596968 -0.179481 1.112 0 0 0 0 0 0 255
-0.596605 -0.349526 1.145 0 0 0 0 0 0 255
-0.598737 -0.207895 1.185 0 0 0 0 0 0 255
-0.604844 -0.372363 1.123 0 0 0 0 0 0 255
-0.594954 -0.251558 1.138 0 0 0 0 0 0 255
-0.594853 -0.290463 1.134 0 0 0 0 0 0 255
-0.598919 -0.339453 1.112 0 0 0 0 0 0 255
-0.598856 -0.182528 1.169 0 0 0 0 0 0 255
-0.59271 -0.240605 1.115 0 0 0 0 0 0 255
-0.594821 -0.250758 1.108 0 0 0 0 0 0 255
-0.598851 -0.200298 1.165 0 0 0 0 0 0 255
-0.596963 -0.265974 1.123 0 0 0 0 0 0 255
-0.596768 -0.211102 1.157 0 0 0 0 0 0 255
-0.594954 -0.323432 1.138 0 0 0 0 0 0 255
-0.594954 -0.329421 1.138 0 0 0 0 0 0 255
-0.594954 -0.3414 1.138 0 0 0 0 0 0 255
-0.596719 -0.265649 1.13 0 0 0 0 0 0 255
-0.598851 -0.28614 1.165 0 0 0 0 0 0 255
-0.594837 -0.219874 1.119 0 0 0 0 0 0 255
-0.598558 -0.199519 1.126 0 0 0 0 0 0 255
-0.594837 -0.255211 1.119 0 0 0 0 0 0 255
-0.600533 -0.369407 1.126 0 0 0 0 0 0 255
-0.600533 -0.371382 1.126 0 0 0 0 0 0 255
-0.596795 -0.281084 1.161 0 0 0 0 0 0 255
-0.598856 -0.225597 1.169 0 0 0 0 0 0 255
-0.598632 -0.197421 1.21 0 0 0 0 0 0 255
-0.596951 -0.213625 1.138 0 0 0 0 0 0 255
-0.596768 -0.243579 1.157 0 0 0 0 0 0 255
-0.596605 -0.184807 1.145 0 0 0 0 0 0 255
-0.59271 -0.336456 1.115 0 0 0 0 0 0 255
-0.596658 -0.241158 1.185 0 0 0 0 0 0 255
-0.594705 -0.262965 1.153 0 0 0 0 0 0 255
-0.596842 -0.175074 1.134 0 0 0 0 0 0 255
-0.594837 -0.2238 1.119 0 0 0 0 0 0 255
-0.594954 -0.339404 1.138 0 0 0 0 0 0 255
-0.596951 -0.3414 1.138 0 0 0 0 0 0 255
-0.594607 -0.169888 1.126 0 0 0 0 0 0 255
-0.594607 -0.357554 1.126 0 0 0 0 0 0 255
-0.598832 -0.199611 1.161 0 0 0 0 0 0 255
-0.594837 -0.233616 1.119 0 0 0 0 0 0 255
-0.594954 -0.247565 1.138 0 0 0 0 0 0 255
-0.59271 -0.252342 1.115 0 0 0 0 0 0 255
-0.594521 -0.322282 1.141 0 0 0 0 0 0 255
-0.596765 -0.248814 1.108 0 0 0 0 0 0 255
-0.594821 -0.217712 1.108 0 0 0 0 0 0 255
-0.592519 -0.30827 1.141 0 0 0 0 0 0 255
-0.593067 -0.335551 1.112 0 0 0 0 0 0 255
-0.600533 -0.35953 1.126 0 0 0 0 0 0 255
-0.600904 -0.348721 1.123 0 0 0 0 0 0 255
-0.598856 -0.237902 1.169 0 0 0 0 0 0 255
-0.5968 -0.174721 1.119 0 0 0 0 0 0 255
-0.598751 -0.242737 1.153 0 0 0 0 0 0 255
-0.595017 -0.325796 1.112 0 0 0 0 0 0 255
-0.600533 -0.385211 1.126 0 0 0 0 0 0 255
-0.600533 -0.373358 1.126 0 0 0 0 0 0 255
-0.596523 -0.212186 1.141 0 0 0 0 0 0 255
-0.598558 -0.361505 1.126 0 0 0 0 0 0 255
-0.600533 -0.361505 1.126 0 0 0 0 0 0 255
-0.594607 -0.175814 1.126 0 0 0 0 0 0 255
-0.598689 -0.245926 1.149 0 0 0 0 0 0 255
-0.600623 -0.166728 1.145 0 0 0 0 0 0 255
-0.596605 -0.188825 1.145 0 0 0 0 0 0 255
-0.594597 -0.323412 1.145 0 0 0 0 0 0 255
-0.596623 -0.342325 1.115 0 0 0 0 0 0 255
-0.596768 -0.213132 1.157 0 0 0 0 0 0 255
-0.596719 -0.255737 1.13 0 0 0 0 0 0 255
-0.596719 -0.285474 1.13 0 0 0 0 0 0 255
-0.596582 -0.167912 1.126 0 0 0 0 0 0 255
-0.596765 -0.227432 1.108 0 0 0 0 0 0 255
-0.592754 -0.279526 1.13 0 0 0 0 0 0 255
-0.596728 -0.299375 1.153 0 0 0 0 0 0 255
-0.596963 -0.185196 1.123 0 0 0 0 0 0 255
-0.598798 -0.194863 1.157 0 0 0 0 0 0 255
-0.595017 -0.228253 1.112 0 0 0 0 0 0 255
-0.596674 -0.187468 1.149 0 0 0 0 0 0 255
-0.598579 -0.342325 1.115 0 0 0 0 0 0 255
-0.598525 -0.350307 1.141 0 0 0 0 0 0 255
-0.594954 -0.265533 1.138 0 0 0 0 0 0 255
-0.598751 -0.228577 1.153 0 0 0 0 0 0 255
-0.594737 -0.356842 1.13 0 0 0 0 0 0 255
-0.596768 -0.276056 1.157 0 0 0 0 0 0 255
-0.598768 -0.198884 1.206 0 0 0 0 0 0 255
-0.598768 -0.201 1.206 0 0 0 0 0 0 255
-0.596968 -0.245811 1.112 0 0 0 0 0 0 255
-0.598525 -0.176154 1.141 0 0 0 0 0 0 255
-0.596582 -0.262733 1.126 0 0 0 0 0 0 255
-0.593211 -0.265588 1.105 0 0 0 0 0 0 255
-0.594667 -0.252342 1.115 0 0 0 0 0 0 255
-0.596719 -0.364772 1.13 0 0 0 0 0 0 255
-0.594993 -0.299467 1.123 0 0 0 0 0 0 255
-0.596728 -0.18003 1.153 0 0 0 0 0 0 255
-0.598798 -0.200953 1.157 0 0 0 0 0 0 255
-0.594993 -0.297496 1.123 0 0 0 0 0 0 255
-0.596605 -0.180789 1.145 0 0 0 0 0 0 255
-0.591272 -0.265588 1.105 0 0 0 0 0 0 255
-0.600535 -0.342325 1.115 0 0 0 0 0 0 255
-0.595149 -0.265588 1.105 0 0 0 0 0 0 255
-0.602509 -0.395088 1.126 0 0 0 0 0 0 255
-0.598947 -0.179684 1.138 0 0 0 0 0 0 255
-0.600726 -0.361221 1.119 0 0 0 0 0 0 255
-0.59271 -0.238649 1.115 0 0 0 0 0 0 255
-0.596719 -0.372702 1.13 0 0 0 0 0 0 255
-0.59676 -0.274633 1.177 0 0 0 0 0 0 255
-0.596605 -0.231009 1.145 0 0 0 0 0 0 255
-0.594658 -0.262053 1.149 0 0 0 0 0 0 255
-0.598856 -0.227647 1.169 0 0 0 0 0 0 255
-0.596768 -0.180654 1.157 0 0 0 0 0 0 255
-0.590754 -0.252342 1.115 0 0 0 0 0 0 255
-0.598847 -0.253121 1.173 0 0 0 0 0 0 255
-0.596605 -0.333456 1.145 0 0 0 0 0 0 255
-0.598947 -0.163712 1.138 0 0 0 0 0 0 255
-0.598737 -0.247395 1.185 0 0 0 0 0 0 255
-0.5965 -0.19674 1.193 0 0 0 0 0 0 255
-0.596586 -0.233628 1.189 0 0 0 0 0 0 255
-0.596805 -0.215342 1.169 0 0 0 0 0 0 255
-0.594954 -0.30746 1.138 0 0 0 0 0 0 255
-0.596582 -0.339775 1.126 0 0 0 0 0 0 255
-0.5968 -0.194353 1.119 0 0 0 0 0 0 255
-0.596795 -0.207758 1.161 0 0 0 0 0 0 255
-0.5965 -0.207205 1.193 0 0 0 0 0 0 255
-0.598856 -0.276868 1.169 0 0 0 0 0 0 255
-0.596623 -0.303202 1.115 0 0 0 0 0 0 255
-0.598832 -0.234758 1.134 0 0 0 0 0 0 255
-0.596586 -0.223198 1.189 0 0 0 0 0 0 255
-0.596623 -0.191702 1.115 0 0 0 0 0 0 255
-0.598614 -0.176772 1.145 0 0 0 0 0 0 255
-0.596523 -0.208182 1.141 0 0 0 0 0 0 255
-0.598856 -0.285072 1.169 0 0 0 0 0 0 255
-0.600884 -0.203116 1.206 0 0 0 0 0 0 255
-0.596765 -0.326568 1.108 0 0 0 0 0 0 255
-0.596523 -0.320281 1.141 0 0 0 0 0 0 255
-0.598919 -0.24386 1.112 0 0 0 0 0 0 255
-0.594739 -0.259818 1.157 0 0 0 0 0 0 255
-0.596805 -0.270716 1.169 0 0 0 0 0 0 255
-0.594667 -0.176053 1.115 0 0 0 0 0 0 255
-0.592958 -0.30746 1.138 0 0 0 0 0 0 255
-0.596842 -0.210884 1.134 0 0 0 0 0 0 255
-0.598856 -0.178426 1.169 0 0 0 0 0 0 255
-0.602509 -0.385211 1.126 0 0 0 0 0 0 255
-0.598825 -0.194102 1.177 0 0 0 0 0 0 255
-0.596582 -0.266684 1.126 0 0 0 0 0 0 255
-0.594853 -0.358105 1.134 0 0 0 0 0 0 255
-0.594607 -0.199519 1.126 0 0 0 0 0 0 255
-0.5965 -0.200926 1.193 0 0 0 0 0 0 255
-0.594705 -0.264988 1.153 0 0 0 0 0 0 255
-0.592995 -0.305189 1.101 0 0 0 0 0 0 255
-0.592877 -0.274084 1.108 0 0 0 0 0 0 255
-0.594954 -0.205639 1.138 0 0 0 0 0 0 255
-0.594954 -0.359368 1.138 0 0 0 0 0 0 255
-0.596719 -0.168509 1.13 0 0 0 0 0 0 255
-0.596789 -0.259295 1.173 0 0 0 0 0 0 255
-0.59676 -0.233335 1.177 0 0 0 0 0 0 255
-0.591116 -0.316042 1.112 0 0 0 0 0 0 255
-0.598702 -0.368737 1.13 0 0 0 0 0 0 255
-0.596582 -0.193593 1.126 0 0 0 0 0 0 255
-0.594821 -0.264365 1.108 0 0 0 0 0 0 255
-0.598856 -0.268665 1.169 0 0 0 0 0 0 255
-0.594821 -0.285747 1.108 0 0 0 0 0 0 255
-0.60646 -0.401014 1.126 0 0 0 0 0 0 255
-0.598856 -0.239953 1.169 0 0 0 0 0 0 255
-0.594521 -0.260228 1.141 0 0 0 0 0 0 255
-0.594579 -0.247395 1.185 0 0 0 0 0 0 255
-0.600895 -0.233 1.165 0 0 0 0 0 0 255
-0.596968 -0.239958 1.112 0 0 0 0 0 0 255
-0.598558 -0.209396 1.126 0 0 0 0 0 0 255
-0.598558 -0.211372 1.126 0 0 0 0 0 0 255
-0.600533 -0.383235 1.126 0 0 0 0 0 0 255
-0.596963 -0.179286 1.123 0 0 0 0 0 0 255
-0.596968 -0.282877 1.112 0 0 0 0 0 0 255
-0.602509 -0.393112 1.126 0 0 0 0 0 0 255
-0.596523 -0.314275 1.141 0 0 0 0 0 0 255
-0.596805 -0.299428 1.169 0 0 0 0 0 0 255
-0.596716 -0.184402 1.181 0 0 0 0 0 0 255
-0.596728 -0.279147 1.153 0 0 0 0 0 0 255
-0.59676 -0.200296 1.177 0 0 0 0 0 0 255
-0.593023 -0.299467 1.123 0 0 0 0 0 0 255
-0.592754 -0.303316 1.13 0 0 0 0 0 0 255
-0.594954 -0.26154 1.138 0 0 0 0 0 0 255
-0.596716 -0.221696 1.181 0 0 0 0 0 0 255
-0.606814 -0.392065 1.123 0 0 0 0 0 0 255
-0.60646 -0.391137 1.126 0 0 0 0 0 0 255
-0.598632 -0.203789 1.21 0 0 0 0 0 0 255
-0.600684 -0.388561 1.13 0 0 0 0 0 0 255
-0.596963 -0.330989 1.123 0 0 0 0 0 0 255
-0.591063 -0.312916 1.101 0 0 0 0 0 0 255
-0.596768 -0.237489 1.157 0 0 0 0 0 0 255
-0.598763 -0.196316 1.119 0 0 0 0 0 0 255
-0.594607 -0.29434 1.126 0 0 0 0 0 0 255
-0.596586 -0.208596 1.189 0 0 0 0 0 0 255
-0.594926 -0.320642 1.101 0 0 0 0 0 0 255
-0.59676 -0.179647 1.177 0 0 0 0 0 0 255
-0.596842 -0.204916 1.134 0 0 0 0 0 0 255
-0.592519 -0.260228 1.141 0 0 0 0 0 0 255
-0.594853 -0.324284 1.134 0 0 0 0 0 0 255
-0.598614 -0.24507 1.145 0 0 0 0 0 0 255
-0.5968 -0.182574 1.119 0 0 0 0 0 0 255
-0.590754 -0.244518 1.115 0 0 0 0 0 0 255
-0.594954 -0.293484 1.138 0 0 0 0 0 0 255
-0.596658 -0.218289 1.185 0 0 0 0 0 0 255
-0.596968 -0.216547 1.112 0 0 0 0 0 0 255
-0.598788 -0.213409 1.181 0 0 0 0 0 0 255
-0.594954 -0.361365 1.138 0 0 0 0 0 0 255
-0.594993 -0.281735 1.123 0 0 0 0 0 0 255
-0.598832 -0.344179 1.134 0 0 0 0 0 0 255
-0.598856 -0.229698 1.169 0 0 0 0 0 0 255
-0.600904 -0.364482 1.123 0 0 0 0 0 0 255
-0.596968 -0.290681 1.112 0 0 0 0 0 0 255
-0.596728 -0.210372 1.153 0 0 0 0 0 0 255
-0.594607 -0.320021 1.126 0 0 0 0 0 0 255
-0.598614 -0.180789 1.145 0 0 0 0 0 0 255
-0.598579 -0.344281 1.115 0 0 0 0 0 0 255
-0.5965 -0.242786 1.193 0 0 0 0 0 0 255
-0.598919 -0.239958 1.112 0 0 0 0 0 0 255
-0.594821 -0.229375 1.108 0 0 0 0 0 0 255
-0.596586 -0.235714 1.189 0 0 0 0 0 0 255
-0.596728 -0.283193 1.153 0 0 0 0 0 0 255
-0.596719 -0.362789 1.13 0 0 0 0 0 0 255
-0.596951 -0.211628 1.138 0 0 0 0 0 0 255
-0.5965 -0.211391 1.193 0 0 0 0 0 0 255
-0.596795 -0.219979 1.161 0 0 0 0 0 0 255
-0.594521 -0.252221 1.141 0 0 0 0 0 0 255
-0.594521 -0.256225 1.141 0 0 0 0 0 0 255
-0.594521 -0.258226 1.141 0 0 0 0 0 0 255
-0.596728 -0.175984 1.153 0 0 0 0 0 0 255
-0.598832 -0.204916 1.134 0 0 0 0 0 0 255
-0.596716 -0.188546 1.181 0 0 0 0 0 0 255
-0.594993 -0.295526 1.123 0 0 0 0 0 0 255
-0.596523 -0.190167 1.141 0 0 0 0 0 0 255
-0.596968 -0.292632 1.112 0 0 0 0 0 0 255
-0.595017 -0.183382 1.112 0 0 0 0 0 0 255
-0.594705 -0.269033 1.153 0 0 0 0 0 0 255
-0.59676 -0.204426 1.177 0 0 0 0 0 0 255
-0.598891 -0.191898 1.202 0 0 0 0 0 0 255
-0.592877 -0.30713 1.108 0 0 0 0 0 0 255
-0.594853 -0.266589 1.134 0 0 0 0 0 0 255
-0.594705 -0.335786 1.153 0 0 0 0 0 0 255
-0.598481 -0.193814 1.214 0 0 0 0 0 0 255
-0.594993 -0.325079 1.123 0 0 0 0 0 0 255
-0.594954 -0.325428 1.138 0 0 0 0 0 0 255
-0.598702 -0.374684 1.13 0 0 0 0 0 0 255
-0.592874 -0.276805 1.119 0 0 0 0 0 0 255
-0.596842 -0.206905 1.134 0 0 0 0 0 0 255
-0.596719 -0.220053 1.13 0 0 0 0 0 0 255
-0.596728 -0.271056 1.153 0 0 0 0 0 0 255
-0.598702 -0.392526 1.13 0 0 0 0 0 0 255
-0.600726 -0.359258 1.119 0 0 0 0 0 0 255
-0.594667 -0.285596 1.115 0 0 0 0 0 0 255
-0.596789 -0.216079 1.173 0 0 0 0 0 0 255
-0.602874 -0.372363 1.123 0 0 0 0 0 0 255
-0.596586 -0.241972 1.189 0 0 0 0 0 0 255
-0.598525 -0.174153 1.141 0 0 0 0 0 0 255
-0.594521 -0.214188 1.141 0 0 0 0 0 0 255
-0.596582 -0.335825 1.126 0 0 0 0 0 0 255
-0.598632 -0.195298 1.21 0 0 0 0 0 0 255
-0.596586 -0.214854 1.189 0 0 0 0 0 0 255
-0.598689 -0.292289 1.149 0 0 0 0 0 0 255
-0.598558 -0.377309 1.126 0 0 0 0 0 0 255
-0.591272 -0.267526 1.105 0 0 0 0 0 0 255
-0.594737 -0.315211 1.13 0 0 0 0 0 0 255
-0.604484 -0.377309 1.126 0 0 0 0 0 0 255
-0.594607 -0.323972 1.126 0 0 0 0 0 0 255
-0.598798 -0.23343 1.157 0 0 0 0 0 0 255
-0.596842 -0.258632 1.134 0 0 0 0 0 0 255
-0.594758 -0.3096 1.161 0 0 0 0 0 0 255
-0.594821 -0.270196 1.108 0 0 0 0 0 0 255
-0.594658 -0.258021 1.149 0 0 0 0 0 0 255
-0.598768 -0.205232 1.206 0 0 0 0 0 0 255
-0.596782 -0.22353 1.202 0 0 0 0 0 0 255
-0.604844 -0.364482 1.123 0 0 0 0 0 0 255
-0.596963 -0.187167 1.123 0 0 0 0 0 0 255
-0.596963 -0.191107 1.123 0 0 0 0 0 0 255
-0.596768 -0.255758 1.157 0 0 0 0 0 0 255
-0.594737 -0.333053 1.13 0 0 0 0 0 0 255
-0.594521 -0.190167 1.141 0 0 0 0 0 0 255
-0.596523 -0.214188 1.141 0 0 0 0 0 0 255
-0.598798 -0.225311 1.157 0 0 0 0 0 0 255
-0.598856 -0.289174 1.169 0 0 0 0 0 0 255
-0.596842 -0.2646 1.134 0 0 0 0 0 0 255
-0.593067 -0.296533 1.112 0 0 0 0 0 0 255
-0.59271 -0.271904 1.115 0 0 0 0 0 0 255
-0.598579 -0.170184 1.115 0 0 0 0 0 0 255
-0.592958 -0.273519 1.138 0 0 0 0 0 0 255
-0.594521 -0.300263 1.141 0 0 0 0 0 0 255
-0.604484 -0.397063 1.126 0 0 0 0 0 0 255
-0.598832 -0.216853 1.134 0 0 0 0 0 0 255
-0.600726 -0.347479 1.119 0 0 0 0 0 0 255
-0.596658 -0.249474 1.185 0 0 0 0 0 0 255
-0.598891 -0.194007 1.202 0 0 0 0 0 0 255
-0.598891 -0.198225 1.202 0 0 0 0 0 0 255
-0.600884 -0.205232 1.206 0 0 0 0 0 0 255
-0.598891 -0.20666 1.202 0 0 0 0 0 0 255
-0.60646 -0.383235 1.126 0 0 0 0 0 0 255
-0.5964 -0.2121 1.197 0 0 0 0 0 0 255
-0.598891 -0.215095 1.202 0 0 0 0 0 0 255
-0.5964 -0.2331 1.197 0 0 0 0 0 0 255
-0.596805 -0.231749 1.169 0 0 0 0 0 0 255
-0.594607 -0.197544 1.126 0 0 0 0 0 0 255
-0.592519 -0.312274 1.141 0 0 0 0 0 0 255
-0.600907 -0.174325 1.169 0 0 0 0 0 0 255
-0.598702 -0.202211 1.13 0 0 0 0 0 0 255
-0.598825 -0.185842 1.177 0 0 0 0 0 0 255
-0.598847 -0.238716 1.173 0 0 0 0 0 0 255
-0.598768 -0.203116 1.206 0 0 0 0 0 0 255
-0.596842 -0.177063 1.134 0 0 0 0 0 0 255
-0.598525 -0.352309 1.141 0 0 0 0 0 0 255
-0.596805 -0.285072 1.169 0 0 0 0 0 0 255
-0.592863 -0.304389 1.134 0 0 0 0 0 0 255
-0.594607 -0.327923 1.126 0 0 0 0 0 0 255
-0.596623 -0.193658 1.115 0 0 0 0 0 0 255
-0.594821 -0.262421 1.108 0 0 0 0 0 0 255
-0.596719 -0.166526 1.13 0 0 0 0 0 0 255
-0.596768 -0.184714 1.157 0 0 0 0 0 0 255
-0.593211 -0.31793 1.105 0 0 0 0 0 0 255
-0.596807 -0.222781 1.165 0 0 0 0 0 0 255
-0.5985 -0.1911 1.197 0 0 0 0 0 0 255
-0.5965 -0.192554 1.193 0 0 0 0 0 0 255
-0.5965 -0.205112 1.193 0 0 0 0 0 0 255
-0.5965 -0.209298 1.193 0 0 0 0 0 0 255
-0.5945 -0.246144 1.189 0 0 0 0 0 0 255
-0.592642 -0.316479 1.149 0 0 0 0 0 0 255
-0.5945 -0.24823 1.189 0 0 0 0 0 0 255
-0.596582 -0.333849 1.126 0 0 0 0 0 0 255
-0.596582 -0.341751 1.126 0 0 0 0 0 0 255
-0.5968 -0.1865 1.119 0 0 0 0 0 0 255
-0.5968 -0.190426 1.119 0 0 0 0 0 0 255
-0.596728 -0.173961 1.153 0 0 0 0 0 0 255
-0.598788 -0.258991 1.181 0 0 0 0 0 0 255
-0.596765 -0.262421 1.108 0 0 0 0 0 0 255
-0.596765 -0.223544 1.108 0 0 0 0 0 0 255
-0.594821 -0.330456 1.108 0 0 0 0 0 0 255
-0.598788 -0.209265 1.181 0 0 0 0 0 0 255
-0.596586 -0.202339 1.189 0 0 0 0 0 0 255
-0.596586 -0.206511 1.189 0 0 0 0 0 0 255
-0.596586 -0.212768 1.189 0 0 0 0 0 0 255
-0.596586 -0.221112 1.189 0 0 0 0 0 0 255
-0.59676 -0.194102 1.177 0 0 0 0 0 0 255
-0.596586 -0.225284 1.189 0 0 0 0 0 0 255
-0.596586 -0.22737 1.189 0 0 0 0 0 0 255
-0.594521 -0.298261 1.141 0 0 0 0 0 0 255
-0.598847 -0.269584 1.173 0 0 0 0 0 0 255
-0.597088 -0.335377 1.105 0 0 0 0 0 0 255
-0.596582 -0.35953 1.126 0 0 0 0 0 0 255
-0.596768 -0.292295 1.157 0 0 0 0 0 0 255
-0.594667 -0.338412 1.115 0 0 0 0 0 0 255
-0.596582 -0.179765 1.126 0 0 0 0 0 0 255
-0.59676 -0.216816 1.177 0 0 0 0 0 0 255
-0.594597 -0.255114 1.145 0 0 0 0 0 0 255
-0.604844 -0.396005 1.123 0 0 0 0 0 0 255
-0.592682 -0.307467 1.153 0 0 0 0 0 0 255
-0.600533 -0.205446 1.126 0 0 0 0 0 0 255
-0.596582 -0.237053 1.126 0 0 0 0 0 0 255
-0.598672 -0.204425 1.189 0 0 0 0 0 0 255
-0.598672 -0.206511 1.189 0 0 0 0 0 0 255
-0.598672 -0.208596 1.189 0 0 0 0 0 0 255
-0.598672 -0.214854 1.189 0 0 0 0 0 0 255
-0.596658 -0.182947 1.185 0 0 0 0 0 0 255
-0.596582 -0.233102 1.126 0 0 0 0 0 0 255
-0.596728 -0.242737 1.153 0 0 0 0 0 0 255
-0.592682 -0.323649 1.153 0 0 0 0 0 0 255
-0.596842 -0.272558 1.134 0 0 0 0 0 0 255
-0.596523 -0.316277 1.141 0 0 0 0 0 0 255
-0.598825 -0.202361 1.177 0 0 0 0 0 0 255
-0.598751 -0.200258 1.153 0 0 0 0 0 0 255
-0.600684 -0.202211 1.13 0 0 0 0 0 0 255
-0.594737 -0.335035 1.13 0 0 0 0 0 0 255
-0.592519 -0.314275 1.141 0 0 0 0 0 0 255
-0.596719 -0.350895 1.13 0 0 0 0 0 0 255
-0.596728 -0.289261 1.153 0 0 0 0 0 0 255
-0.604484 -0.395088 1.126 0 0 0 0 0 0 255
-0.598751 -0.196212 1.153 0 0 0 0 0 0 255
-0.594853 -0.274547 1.134 0 0 0 0 0 0 255
-0.596951 -0.207635 1.138 0 0 0 0 0 0 255
-0.598851 -0.29636 1.165 0 0 0 0 0 0 255
-0.598947 -0.18767 1.138 0 0 0 0 0 0 255
-0.594954 -0.259544 1.138 0 0 0 0 0 0 255
-0.596658 -0.261947 1.185 0 0 0 0 0 0 255
-0.596674 -0.328574 1.149 0 0 0 0 0 0 255
-0.59676 -0.202361 1.177 0 0 0 0 0 0 255
-0.596716 -0.192689 1.181 0 0 0 0 0 0 255
-0.598737 -0.199579 1.185 0 0 0 0 0 0 255
-0.598737 -0.201658 1.185 0 0 0 0 0 0 255
-0.598737 -0.212053 1.185 0 0 0 0 0 0 255
-0.598737 -0.216211 1.185 0 0 0 0 0 0 255
-0.596716 -0.229984 1.181 0 0 0 0 0 0 255
-0.596716 -0.250704 1.181 0 0 0 0 0 0 255
-0.596716 -0.258991 1.181 0 0 0 0 0 0 255
-0.596716 -0.261063 1.181 0 0 0 0 0 0 255
-0.596716 -0.271423 1.181 0 0 0 0 0 0 255
-0.594597 -0.319395 1.145 0 0 0 0 0 0 255
-0.596523 -0.19417 1.141 0 0 0 0 0 0 255
-0.600533 -0.38126 1.126 0 0 0 0 0 0 255
-0.596768 -0.205012 1.157 0 0 0 0 0 0 255
-0.592877 -0.256589 1.108 0 0 0 0 0 0 255
-0.596768 -0.209072 1.157 0 0 0 0 0 0 255
-0.598798 -0.192833 1.157 0 0 0 0 0 0 255
-0.598847 -0.255179 1.173 0 0 0 0 0 0 255
-0.598832 -0.191463 1.161 0 0 0 0 0 0 255
-0.595017 -0.24386 1.112 0 0 0 0 0 0 255
-0.598788 -0.2362 1.181 0 0 0 0 0 0 255
-0.598788 -0.238272 1.181 0 0 0 0 0 0 255
-0.59676 -0.253984 1.177 0 0 0 0 0 0 255
-0.59676 -0.262244 1.177 0 0 0 0 0 0 255
-0.59676 -0.272568 1.177 0 0 0 0 0 0 255
-0.592642 -0.324542 1.149 0 0 0 0 0 0 255
-0.593211 -0.255895 1.105 0 0 0 0 0 0 255
-0.596951 -0.225604 1.138 0 0 0 0 0 0 255
-0.593023 -0.242332 1.123 0 0 0 0 0 0 255
-0.598851 -0.288184 1.165 0 0 0 0 0 0 255
-0.596716 -0.186474 1.181 0 0 0 0 0 0 255
-0.596582 -0.229151 1.126 0 0 0 0 0 0 255
-0.596582 -0.183716 1.126 0 0 0 0 0 0 255
-0.596768 -0.245609 1.157 0 0 0 0 0 0 255
-0.592874 -0.310179 1.119 0 0 0 0 0 0 255
-0.595017 -0.284828 1.112 0 0 0 0 0 0 255
-0.594667 -0.289509 1.115 0 0 0 0 0 0 255
-0.592877 -0.318793 1.108 0 0 0 0 0 0 255
-0.596674 -0.338653 1.149 0 0 0 0 0 0 255
-0.598825 -0.192037 1.177 0 0 0 0 0 0 255
-0.596765 -0.334344 1.108 0 0 0 0 0 0 255
-0.594993 -0.185196 1.123 0 0 0 0 0 0 255
-0.596789 -0.220195 1.173 0 0 0 0 0 0 255
-0.596789 -0.222253 1.173 0 0 0 0 0 0 255
-0.596789 -0.224311 1.173 0 0 0 0 0 0 255
-0.598825 -0.256049 1.177 0 0 0 0 0 0 255
-0.598825 -0.258114 1.177 0 0 0 0 0 0 255
-0.596789 -0.261353 1.173 0 0 0 0 0 0 255
-0.594853 -0.256642 1.134 0 0 0 0 0 0 255
-0.596523 -0.246216 1.141 0 0 0 0 0 0 255
-0.604649 -0.390544 1.13 0 0 0 0 0 0 255
-0.598919 -0.185333 1.112 0 0 0 0 0 0 255
-0.604649 -0.392526 1.13 0 0 0 0 0 0 255
-0.593067 -0.241909 1.112 0 0 0 0 0 0 255
-0.596842 -0.364074 1.134 0 0 0 0 0 0 255
-0.598798 -0.202982 1.157 0 0 0 0 0 0 255
-0.596658 -0.259868 1.185 0 0 0 0 0 0 255
-0.598832 -0.165126 1.134 0 0 0 0 0 0 255
-0.594853 -0.288474 1.134 0 0 0 0 0 0 255
-0.594521 -0.248218 1.141 0 0 0 0 0 0 255
-0.594954 -0.26753 1.138 0 0 0 0 0 0 255
-0.602874 -0.364482 1.123 0 0 0 0 0 0 255
-0.598847 -0.189326 1.173 0 0 0 0 0 0 255
-0.598847 -0.197558 1.173 0 0 0 0 0 0 255
-0.598847 -0.203732 1.173 0 0 0 0 0 0 255
-0.596805 -0.21124 1.169 0 0 0 0 0 0 255
-0.596805 -0.217393 1.169 0 0 0 0 0 0 255
-0.596805 -0.229698 1.169 0 0 0 0 0 0 255
-0.598847 -0.244889 1.173 0 0 0 0 0 0 255
-0.596805 -0.248156 1.169 0 0 0 0 0 0 255
-0.598847 -0.259295 1.173 0 0 0 0 0 0 255
-0.596805 -0.272767 1.169 0 0 0 0 0 0 255
-0.596805 -0.291225 1.169 0 0 0 0 0 0 255
-0.594763 -0.308623 1.165 0 0 0 0 0 0 255
-0.594763 -0.310667 1.165 0 0 0 0 0 0 255
-0.604844 -0.366453 1.123 0 0 0 0 0 0 255
-0.598856 -0.278919 1.169 0 0 0 0 0 0 255
-0.596842 -0.320305 1.134 0 0 0 0 0 0 255
-0.5964 -0.21 1.197 0 0 0 0 0 0 255
-0.594607 -0.276561 1.126 0 0 0 0 0 0 255
-0.591063 -0.305189 1.101 0 0 0 0 0 0 255
-0.598768 -0.194653 1.206 0 0 0 0 0 0 255
-0.594821 -0.225488 1.108 0 0 0 0 0 0 255
-0.594853 -0.328263 1.134 0 0 0 0 0 0 255
-0.594954 -0.197653 1.138 0 0 0 0 0 0 255
-0.59676 -0.251919 1.177 0 0 0 0 0 0 255
-0.589165 -0.247761 1.112 0 0 0 0 0 0 255
-0.594821 -0.279916 1.108 0 0 0 0 0 0 255
-0.598856 -0.180477 1.169 0 0 0 0 0 0 255
-0.598856 -0.188681 1.169 0 0 0 0 0 0 255
-0.598856 -0.190732 1.169 0 0 0 0 0 0 255
-0.600726 -0.202205 1.119 0 0 0 0 0 0 255
-0.596807 -0.214605 1.165 0 0 0 0 0 0 255
-0.598751 -0.169916 1.153 0 0 0 0 0 0 255
-0.598856 -0.244054 1.169 0 0 0 0 0 0 255
-0.594667 -0.326675 1.115 0 0 0 0 0 0 255
-0.596807 -0.271833 1.165 0 0 0 0 0 0 255
-0.598856 -0.274818 1.169 0 0 0 0 0 0 255
-0.598856 -0.283021 1.169 0 0 0 0 0 0 255
-0.596807 -0.304535 1.165 0 0 0 0 0 0 255
-0.602874 -0.366453 1.123 0 0 0 0 0 0 255
-0.592519 -0.266233 1.141 0 0 0 0 0 0 255
-0.602874 -0.370393 1.123 0 0 0 0 0 0 255
-0.598947 -0.349386 1.138 0 0 0 0 0 0 255
-0.594607 -0.329898 1.126 0 0 0 0 0 0 255
-0.594705 -0.33174 1.153 0 0 0 0 0 0 255
-0.592519 -0.270237 1.141 0 0 0 0 0 0 255
-0.592754 -0.333053 1.13 0 0 0 0 0 0 255
-0.596719 -0.368737 1.13 0 0 0 0 0 0 255
-0.594667 -0.217132 1.115 0 0 0 0 0 0 255
-0.598751 -0.248805 1.153 0 0 0 0 0 0 255
-0.594607 -0.282488 1.126 0 0 0 0 0 0 255
-0.596951 -0.321435 1.138 0 0 0 0 0 0 255
-0.598851 -0.192123 1.165 0 0 0 0 0 0 255
-0.592877 -0.305186 1.108 0 0 0 0 0 0 255
-0.594837 -0.304289 1.119 0 0 0 0 0 0 255
-0.598851 -0.17986 1.165 0 0 0 0 0 0 255
-0.596795 -0.201647 1.161 0 0 0 0 0 0 255
-0.592874 -0.278768 1.119 0 0 0 0 0 0 255
-0.596795 -0.205721 1.161 0 0 0 0 0 0 255
-0.598851 -0.224825 1.165 0 0 0 0 0 0 255
-0.600907 -0.231749 1.169 0 0 0 0 0 0 255
-0.594739 -0.261847 1.157 0 0 0 0 0 0 255
-0.596795 -0.268863 1.161 0 0 0 0 0 0 255
-0.592682 -0.305444 1.153 0 0 0 0 0 0 255
-0.590626 -0.310432 1.149 0 0 0 0 0 0 255
-0.598751 -0.173961 1.153 0 0 0 0 0 0 255
-0.592682 -0.325672 1.153 0 0 0 0 0 0 255
-0.594607 -0.274586 1.126 0 0 0 0 0 0 255
-0.594607 -0.288414 1.126 0 0 0 0 0 0 255
-0.598525 -0.186163 1.141 0 0 0 0 0 0 255
-0.600774 -0.167893 1.153 0 0 0 0 0 0 255
-0.594658 -0.334621 1.149 0 0 0 0 0 0 255
-0.598788 -0.207193 1.181 0 0 0 0 0 0 255
-0.594667 -0.281684 1.115 0 0 0 0 0 0 255
-0.600684 -0.392526 1.13 0 0 0 0 0 0 255
-0.600884 -0.201 1.206 0 0 0 0 0 0 255
-0.594954 -0.285498 1.138 0 0 0 0 0 0 255
-0.606814 -0.390095 1.123 0 0 0 0 0 0 255
-0.594737 -0.329088 1.13 0 0 0 0 0 0 255
-0.604844 -0.392065 1.123 0 0 0 0 0 0 255
-0.596768 -0.182684 1.157 0 0 0 0 0 0 255
-0.598832 -0.1935 1.161 0 0 0 0 0 0 255
-0.598832 -0.195537 1.161 0 0 0 0 0 0 255
-0.598832 -0.201647 1.161 0 0 0 0 0 0 255
-0.598832 -0.222016 1.161 0 0 0 0 0 0 255
-0.600895 -0.224825 1.165 0 0 0 0 0 0 255
-0.598832 -0.226089 1.161 0 0 0 0 0 0 255
-0.600895 -0.230956 1.165 0 0 0 0 0 0 255
-0.596582 -0.219274 1.126 0 0 0 0 0 0 255
-0.596768 -0.241549 1.157 0 0 0 0 0 0 255
-0.596963 -0.157614 1.123 0 0 0 0 0 0 255
-0.596768 -0.294325 1.157 0 0 0 0 0 0 255
-0.590579 -0.31136 1.145 0 0 0 0 0 0 255
-0.590579 -0.313368 1.145 0 0 0 0 0 0 255
-0.596963 -0.189137 1.123 0 0 0 0 0 0 255
-0.594607 -0.171863 1.126 0 0 0 0 0 0 255
-0.596807 -0.220737 1.165 0 0 0 0 0 0 255
-0.596716 -0.252775 1.181 0 0 0 0 0 0 255
-0.596728 -0.188121 1.153 0 0 0 0 0 0 255
-0.598798 -0.198923 1.157 0 0 0 0 0 0 255
-0.594837 -0.327847 1.119 0 0 0 0 0 0 255
-0.598798 -0.209072 1.157 0 0 0 0 0 0 255
-0.598798 -0.223281 1.157 0 0 0 0 0 0 255
-0.594658 -0.260037 1.149 0 0 0 0 0 0 255
-0.596728 -0.269033 1.153 0 0 0 0 0 0 255
-0.596728 -0.273079 1.153 0 0 0 0 0 0 255
-0.594644 -0.267279 1.181 0 0 0 0 0 0 255
-0.594658 -0.3064 1.149 0 0 0 0 0 0 255
-0.594658 -0.318495 1.149 0 0 0 0 0 0 255
-0.592958 -0.269526 1.138 0 0 0 0 0 0 255
-0.598825 -0.241595 1.177 0 0 0 0 0 0 255
-0.596658 -0.255711 1.185 0 0 0 0 0 0 255
-0.592642 -0.318495 1.149 0 0 0 0 0 0 255
-0.598919 -0.179481 1.112 0 0 0 0 0 0 255
-0.596586 -0.187737 1.189 0 0 0 0 0 0 255
-0.60646 -0.399039 1.126 0 0 0 0 0 0 255
-0.594821 -0.254646 1.108 0 0 0 0 0 0 255
-0.598856 -0.246105 1.169 0 0 0 0 0 0 255
-0.596968 -0.185333 1.112 0 0 0 0 0 0 255
-0.594993 -0.283705 1.123 0 0 0 0 0 0 255
-0.598768 -0.207347 1.206 0 0 0 0 0 0 255
-0.596674 -0.179405 1.149 0 0 0 0 0 0 255
-0.598702 -0.34693 1.13 0 0 0 0 0 0 255
-0.598751 -0.192167 1.153 0 0 0 0 0 0 255
-0.596674 -0.207626 1.149 0 0 0 0 0 0 255
-0.596674 -0.249958 1.149 0 0 0 0 0 0 255
-0.594597 -0.251096 1.145 0 0 0 0 0 0 255
-0.592519 -0.256225 1.141 0 0 0 0 0 0 255
-0.592519 -0.258226 1.141 0 0 0 0 0 0 255
-0.598856 -0.194833 1.169 0 0 0 0 0 0 255
-0.598947 -0.355375 1.138 0 0 0 0 0 0 255
-0.590961 -0.26753 1.138 0 0 0 0 0 0 255
-0.594597 -0.325421 1.145 0 0 0 0 0 0 255
-0.59676 -0.229205 1.177 0 0 0 0 0 0 255
-0.59676 -0.249854 1.177 0 0 0 0 0 0 255
-0.598558 -0.383235 1.126 0 0 0 0 0 0 255
-0.594521 -0.336295 1.141 0 0 0 0 0 0 255
-0.598947 -0.233589 1.138 0 0 0 0 0 0 255
-0.596586 -0.204425 1.189 0 0 0 0 0 0 255
-0.60086 -0.244488 1.181 0 0 0 0 0 0 255
-0.598947 -0.347389 1.138 0 0 0 0 0 0 255
-0.59676 -0.264309 1.177 0 0 0 0 0 0 255
-0.598947 -0.231593 1.138 0 0 0 0 0 0 255
-0.594521 -0.29626 1.141 0 0 0 0 0 0 255
-0.598788 -0.211337 1.181 0 0 0 0 0 0 255
-0.600684 -0.386579 1.13 0 0 0 0 0 0 255
-0.596795 -0.279047 1.161 0 0 0 0 0 0 255
-0.5968 -0.188463 1.119 0 0 0 0 0 0 255
-0.596716 -0.267279 1.181 0 0 0 0 0 0 255
-0.596765 -0.270196 1.108 0 0 0 0 0 0 255
-0.598689 -0.183437 1.149 0 0 0 0 0 0 255
-0.596605 -0.186816 1.145 0 0 0 0 0 0 255
-0.594521 -0.210184 1.141 0 0 0 0 0 0 255
-0.594521 -0.212186 1.141 0 0 0 0 0 0 255
-0.592958 -0.263537 1.138 0 0 0 0 0 0 255
-0.592958 -0.265533 1.138 0 0 0 0 0 0 255
-0.596719 -0.263667 1.13 0 0 0 0 0 0 255
-0.596605 -0.355553 1.145 0 0 0 0 0 0 255
-0.596605 -0.293281 1.145 0 0 0 0 0 0 255
-0.594521 -0.330289 1.141 0 0 0 0 0 0 255
-0.593067 -0.304337 1.112 0 0 0 0 0 0 255
-0.596728 -0.303421 1.153 0 0 0 0 0 0 255
-0.592632 -0.302242 1.126 0 0 0 0 0 0 255
-0.596586 -0.210682 1.189 0 0 0 0 0 0 255
-0.594607 -0.31607 1.126 0 0 0 0 0 0 255
-0.598737 -0.241158 1.185 0 0 0 0 0 0 255
-0.598614 -0.182798 1.145 0 0 0 0 0 0 255
-0.594597 -0.301316 1.145 0 0 0 0 0 0 255
-0.598558 -0.35953 1.126 0 0 0 0 0 0 255
-0.596523 -0.210184 1.141 0 0 0 0 0 0 255
-0.596523 -0.216189 1.141 0 0 0 0 0 0 255
-0.596523 -0.218191 1.141 0 0 0 0 0 0 255
-0.594954 -0.253554 1.138 0 0 0 0 0 0 255
-0.594954 -0.263537 1.138 0 0 0 0 0 0 255
-0.592863 -0.268579 1.134 0 0 0 0 0 0 255
-0.596523 -0.344302 1.141 0 0 0 0 0 0 255
-0.596523 -0.358314 1.141 0 0 0 0 0 0 255
-0.596523 -0.366321 1.141 0 0 0 0 0 0 255
-0.598919 -0.171677 1.112 0 0 0 0 0 0 255
-0.594926 -0.318711 1.101 0 0 0 0 0 0 255
-0.598525 -0.170149 1.141 0 0 0 0 0 0 255
-0.594667 -0.223 1.115 0 0 0 0 0 0 255
-0.595017 -0.300435 1.112 0 0 0 0 0 0 255
-0.598689 -0.247942 1.149 0 0 0 0 0 0 255
-0.596951 -0.233589 1.138 0 0 0 0 0 0 255
-0.593023 -0.307347 1.123 0 0 0 0 0 0 255
-0.594597 -0.295289 1.145 0 0 0 0 0 0 255
-0.5968 -0.164905 1.119 0 0 0 0 0 0 255
-0.590961 -0.305463 1.138 0 0 0 0 0 0 255
-0.598525 -0.168147 1.141 0 0 0 0 0 0 255
-0.598525 -0.172151 1.141 0 0 0 0 0 0 255
-0.598525 -0.180158 1.141 0 0 0 0 0 0 255
-0.596951 -0.203642 1.138 0 0 0 0 0 0 255
-0.596951 -0.217618 1.138 0 0 0 0 0 0 255
-0.596951 -0.223607 1.138 0 0 0 0 0 0 255
-0.596951 -0.2276 1.138 0 0 0 0 0 0 255
-0.596951 -0.231593 1.138 0 0 0 0 0 0 255
-0.594521 -0.358314 1.141 0 0 0 0 0 0 255
-0.594521 -0.360316 1.141 0 0 0 0 0 0 255
-0.594853 -0.268579 1.134 0 0 0 0 0 0 255
-0.596951 -0.273519 1.138 0 0 0 0 0 0 255
-0.592754 -0.281509 1.13 0 0 0 0 0 0 255
-0.590656 -0.300267 1.126 0 0 0 0 0 0 255
-0.598689 -0.223753 1.149 0 0 0 0 0 0 255
-0.598798 -0.247639 1.157 0 0 0 0 0 0 255
-0.596586 -0.185651 1.189 0 0 0 0 0 0 255
-0.594521 -0.250219 1.141 0 0 0 0 0 0 255
-0.596951 -0.219614 1.138 0 0 0 0 0 0 255
-0.604484 -0.383235 1.126 0 0 0 0 0 0 255
-0.598851 -0.188035 1.165 0 0 0 0 0 0 255
-0.596765 -0.233263 1.108 0 0 0 0 0 0 255
-0.59271 -0.224956 1.115 0 0 0 0 0 0 255
-0.596768 -0.302444 1.157 0 0 0 0 0 0 255
-0.598579 -0.154535 1.115 0 0 0 0 0 0 255
-0.598847 -0.2346 1.173 0 0 0 0 0 0 255
-0.593067 -0.277025 1.112 0 0 0 0 0 0 255
-0.598947 -0.165709 1.138 0 0 0 0 0 0 255
-0.5965 -0.213484 1.193 0 0 0 0 0 0 255
-0.594821 -0.223544 1.108 0 0 0 0 0 0 255
-0.598947 -0.345393 1.138 0 0 0 0 0 0 255
-0.592632 -0.308168 1.126 0 0 0 0 0 0 255
-0.594737 -0.311246 1.13 0 0 0 0 0 0 255
-0.594737 -0.325123 1.13 0 0 0 0 0 0 255
-0.594737 -0.358825 1.13 0 0 0 0 0 0 255
-0.596674 -0.332605 1.149 0 0 0 0 0 0 255
-0.594758 -0.305526 1.161 0 0 0 0 0 0 255
-0.598847 -0.199616 1.173 0 0 0 0 0 0 255
-0.596765 -0.301298 1.108 0 0 0 0 0 0 255
-0.5968 -0.168832 1.119 0 0 0 0 0 0 255
-0.596523 -0.350307 1.141 0 0 0 0 0 0 255
-0.596623 -0.238649 1.115 0 0 0 0 0 0 255
-0.597088 -0.337316 1.105 0 0 0 0 0 0 255
-0.594853 -0.330253 1.134 0 0 0 0 0 0 255
-0.590754 -0.242561 1.115 0 0 0 0 0 0 255
-0.594821 -0.2216 1.108 0 0 0 0 0 0 255
-0.598856 -0.291225 1.169 0 0 0 0 0 0 255
-0.596768 -0.298384 1.157 0 0 0 0 0 0 255
-0.594607 -0.280512 1.126 0 0 0 0 0 0 255
-0.594607 -0.304218 1.126 0 0 0 0 0 0 255
-0.594607 -0.318046 1.126 0 0 0 0 0 0 255
-0.596719 -0.174456 1.13 0 0 0 0 0 0 255
-0.593023 -0.244302 1.123 0 0 0 0 0 0 255
-0.596716 -0.234128 1.181 0 0 0 0 0 0 255
-0.604844 -0.200958 1.123 0 0 0 0 0 0 255
-0.594607 -0.302242 1.126 0 0 0 0 0 0 255
-0.594607 -0.321996 1.126 0 0 0 0 0 0 255
-0.600904 -0.358572 1.123 0 0 0 0 0 0 255
-0.596719 -0.366754 1.13 0 0 0 0 0 0 255
-0.592588 -0.313368 1.145 0 0 0 0 0 0 255
-0.596805 -0.274818 1.169 0 0 0 0 0 0 255
-0.598751 -0.171939 1.153 0 0 0 0 0 0 255
-0.596842 -0.318316 1.134 0 0 0 0 0 0 255
-0.598933 -0.161554 1.123 0 0 0 0 0 0 255
-0.604844 -0.374333 1.123 0 0 0 0 0 0 255
-0.596968 -0.167775 1.112 0 0 0 0 0 0 255
-0.594667 -0.299289 1.115 0 0 0 0 0 0 255
-0.59271 -0.277772 1.115 0 0 0 0 0 0 255
-0.602874 -0.354632 1.123 0 0 0 0 0 0 255
-0.604844 -0.354632 1.123 0 0 0 0 0 0 255
-0.594853 -0.306379 1.134 0 0 0 0 0 0 255
-0.598919 -0.245811 1.112 0 0 0 0 0 0 255
-0.592995 -0.307121 1.101 0 0 0 0 0 0 255
-0.596789 -0.251063 1.173 0 0 0 0 0 0 255
-0.598763 -0.198279 1.119 0 0 0 0 0 0 255
-0.598702 -0.162561 1.13 0 0 0 0 0 0 255
-0.595017 -0.220449 1.112 0 0 0 0 0 0 255
-0.594993 -0.189137 1.123 0 0 0 0 0 0 255
-0.596582 -0.197544 1.126 0 0 0 0 0 0 255
-0.594737 -0.247807 1.13 0 0 0 0 0 0 255
-0.598702 -0.216088 1.13 0 0 0 0 0 0 255
-0.590754 -0.250386 1.115 0 0 0 0 0 0 255
-0.596968 -0.337502 1.112 0 0 0 0 0 0 255
-0.594739 -0.328832 1.157 0 0 0 0 0 0 255
-0.594993 -0.285675 1.123 0 0 0 0 0 0 255
-0.596582 -0.3378 1.126 0 0 0 0 0 0 255
-0.598825 -0.183777 1.177 0 0 0 0 0 0 255
-0.596765 -0.229375 1.108 0 0 0 0 0 0 255
-0.598947 -0.221611 1.138 0 0 0 0 0 0 255
-0.596623 -0.189746 1.115 0 0 0 0 0 0 255
-0.5945 -0.225284 1.189 0 0 0 0 0 0 255
-0.596805 -0.283021 1.169 0 0 0 0 0 0 255
-0.594853 -0.244705 1.134 0 0 0 0 0 0 255
-0.590754 -0.314939 1.115 0 0 0 0 0 0 255
-0.598933 -0.208839 1.123 0 0 0 0 0 0 255
-0.596582 -0.223225 1.126 0 0 0 0 0 0 255
-0.594837 -0.170795 1.119 0 0 0 0 0 0 255
-0.596582 -0.351628 1.126 0 0 0 0 0 0 255
-0.596963 -0.197018 1.123 0 0 0 0 0 0 255
-0.596963 -0.216719 1.123 0 0 0 0 0 0 255
-0.59271 -0.250386 1.115 0 0 0 0 0 0 255
-0.598919 -0.247761 1.112 0 0 0 0 0 0 255
-0.594837 -0.282695 1.119 0 0 0 0 0 0 255
-0.594521 -0.320281 1.141 0 0 0 0 0 0 255
-0.598558 -0.379284 1.126 0 0 0 0 0 0 255
-0.595017 -0.335551 1.112 0 0 0 0 0 0 255
-0.596768 -0.253728 1.157 0 0 0 0 0 0 255
-0.602509 -0.397063 1.126 0 0 0 0 0 0 255
-0.600533 -0.353604 1.126 0 0 0 0 0 0 255
-0.598919 -0.292632 1.112 0 0 0 0 0 0 255
-0.596674 -0.189484 1.149 0 0 0 0 0 0 255
-0.596842 -0.268579 1.134 0 0 0 0 0 0 255
-0.594737 -0.337018 1.13 0 0 0 0 0 0 255
-0.594993 -0.323109 1.123 0 0 0 0 0 0 255
-0.596968 -0.173628 1.112 0 0 0 0 0 0 255
-0.594821 -0.320737 1.108 0 0 0 0 0 0 255
-0.600684 -0.366754 1.13 0 0 0 0 0 0 255
-0.594607 -0.193593 1.126 0 0 0 0 0 0 255
-0.594607 -0.195568 1.126 0 0 0 0 0 0 255
-0.5968 -0.172758 1.119 0 0 0 0 0 0 255
-0.598933 -0.198988 1.123 0 0 0 0 0 0 255
-0.592642 -0.322526 1.149 0 0 0 0 0 0 255
-0.606814 -0.399946 1.123 0 0 0 0 0 0 255
-0.593067 -0.294582 1.112 0 0 0 0 0 0 255
-0.594993 -0.293556 1.123 0 0 0 0 0 0 255
-0.600533 -0.375333 1.126 0 0 0 0 0 0 255
-0.598891 -0.189789 1.202 0 0 0 0 0 0 255
-0.596716 -0.18233 1.181 0 0 0 0 0 0 255
-0.594597 -0.253105 1.145 0 0 0 0 0 0 255
-0.598856 -0.242004 1.169 0 0 0 0 0 0 255
-0.598851 -0.190079 1.165 0 0 0 0 0 0 255
-0.598614 -0.243061 1.145 0 0 0 0 0 0 255
-0.594837 -0.237542 1.119 0 0 0 0 0 0 255
-0.594667 -0.221044 1.115 0 0 0 0 0 0 255
-0.594954 -0.271523 1.138 0 0 0 0 0 0 255
-0.598919 -0.300435 1.112 0 0 0 0 0 0 255
-0.594737 -0.279526 1.13 0 0 0 0 0 0 255
-0.598832 -0.372032 1.134 0 0 0 0 0 0 255
-0.602509 -0.377309 1.126 0 0 0 0 0 0 255
-0.596719 -0.335035 1.13 0 0 0 0 0 0 255
-0.594607 -0.310144 1.126 0 0 0 0 0 0 255
-0.596674 -0.286242 1.149 0 0 0 0 0 0 255
-0.596623 -0.178009 1.115 0 0 0 0 0 0 255
-0.594658 -0.332605 1.149 0 0 0 0 0 0 255
-0.598763 -0.204168 1.119 0 0 0 0 0 0 255
-0.595017 -0.2224 1.112 0 0 0 0 0 0 255
-0.592877 -0.254646 1.108 0 0 0 0 0 0 255
-0.592877 -0.264365 1.108 0 0 0 0 0 0 255
-0.592877 -0.270196 1.108 0 0 0 0 0 0 255
-0.592877 -0.295467 1.108 0 0 0 0 0 0 255
-0.595017 -0.337502 1.112 0 0 0 0 0 0 255
-0.600904 -0.354632 1.123 0 0 0 0 0 0 255
-0.602509 -0.369407 1.126 0 0 0 0 0 0 255
-0.602509 -0.373358 1.126 0 0 0 0 0 0 255
-0.602509 -0.379284 1.126 0 0 0 0 0 0 255
-0.594521 -0.326286 1.141 0 0 0 0 0 0 255
-0.592877 -0.293523 1.108 0 0 0 0 0 0 255
-0.592519 -0.316277 1.141 0 0 0 0 0 0 255
-0.596842 -0.171095 1.134 0 0 0 0 0 0 255
-0.596968 -0.24386 1.112 0 0 0 0 0 0 255
-0.596805 -0.213291 1.169 0 0 0 0 0 0 255
-0.596582 -0.217298 1.126 0 0 0 0 0 0 255
-0.598702 -0.364772 1.13 0 0 0 0 0 0 255
-0.596968 -0.165825 1.112 0 0 0 0 0 0 255
-0.596968 -0.171677 1.112 0 0 0 0 0 0 255
-0.59676 -0.218881 1.177 0 0 0 0 0 0 255
-0.598579 -0.195614 1.115 0 0 0 0 0 0 255
-0.595149 -0.319868 1.105 0 0 0 0 0 0 255
-0.596968 -0.234105 1.112 0 0 0 0 0 0 255
-0.596968 -0.241909 1.112 0 0 0 0 0 0 255
-0.593211 -0.257833 1.105 0 0 0 0 0 0 255
-0.594821 -0.260477 1.108 0 0 0 0 0 0 255
-0.594821 -0.277972 1.108 0 0 0 0 0 0 255
-0.600726 -0.357295 1.119 0 0 0 0 0 0 255
-0.604484 -0.379284 1.126 0 0 0 0 0 0 255
-0.596716 -0.269351 1.181 0 0 0 0 0 0 255
-0.596765 -0.2216 1.108 0 0 0 0 0 0 255
-0.594993 -0.187167 1.123 0 0 0 0 0 0 255
-0.598737 -0.205816 1.185 0 0 0 0 0 0 255
-0.596805 -0.207139 1.169 0 0 0 0 0 0 255
-0.600623 -0.164719 1.145 0 0 0 0 0 0 255
-0.596968 -0.335551 1.112 0 0 0 0 0 0 255
-0.592754 -0.33107 1.13 0 0 0 0 0 0 255
-0.596582 -0.329898 1.126 0 0 0 0 0 0 255
-0.598856 -0.258411 1.169 0 0 0 0 0 0 255
-0.598919 -0.167775 1.112 0 0 0 0 0 0 255
-0.594667 -0.256254 1.115 0 0 0 0 0 0 255
-0.602689 -0.204168 1.119 0 0 0 0 0 0 255
-0.602689 -0.206132 1.119 0 0 0 0 0 0 255
-0.596765 -0.231319 1.108 0 0 0 0 0 0 255
-0.598919 -0.337502 1.112 0 0 0 0 0 0 255
-0.602689 -0.349442 1.119 0 0 0 0 0 0 255
-0.592588 -0.315377 1.145 0 0 0 0 0 0 255
-0.60646 -0.377309 1.126 0 0 0 0 0 0 255
-0.597088 -0.325684 1.105 0 0 0 0 0 0 255
-0.600726 -0.206132 1.119 0 0 0 0 0 0 255
-0.598788 -0.261063 1.181 0 0 0 0 0 0 255
-0.596807 -0.216649 1.165 0 0 0 0 0 0 255
-0.606814 -0.388125 1.123 0 0 0 0 0 0 255
-0.594737 -0.277544 1.13 0 0 0 0 0 0 255
-0.598751 -0.246782 1.153 0 0 0 0 0 0 255
-0.598851 -0.185991 1.165 0 0 0 0 0 0 255
-0.600535 -0.356018 1.115 0 0 0 0 0 0 255
-0.596719 -0.184368 1.13 0 0 0 0 0 0 255
-0.595017 -0.218498 1.112 0 0 0 0 0 0 255
-0.606814 -0.396005 1.123 0 0 0 0 0 0 255
-0.598558 -0.351628 1.126 0 0 0 0 0 0 255
-0.600535 -0.154535 1.115 0 0 0 0 0 0 255
-0.594837 -0.217911 1.119 0 0 0 0 0 0 255
-0.594926 -0.314847 1.101 0 0 0 0 0 0 255
-0.598847 -0.261353 1.173 0 0 0 0 0 0 255
-0.594521 -0.324284 1.141 0 0 0 0 0 0 255
-0.606814 -0.409796 1.123 0 0 0 0 0 0 255
-0.598614 -0.241053 1.145 0 0 0 0 0 0 255
-0.597088 -0.3315 1.105 0 0 0 0 0 0 255
-0.594954 -0.203642 1.138 0 0 0 0 0 0 255
-0.592632 -0.296316 1.126 0 0 0 0 0 0 255
-0.60646 -0.379284 1.126 0 0 0 0 0 0 255
-0.598947 -0.351382 1.138 0 0 0 0 0 0 255
-0.598847 -0.193442 1.173 0 0 0 0 0 0 255
-0.600895 -0.235044 1.165 0 0 0 0 0 0 255
-0.600533 -0.377309 1.126 0 0 0 0 0 0 255
-0.596674 -0.280195 1.149 0 0 0 0 0 0 255
-0.595149 -0.257833 1.105 0 0 0 0 0 0 255
-0.592632 -0.300267 1.126 0 0 0 0 0 0 255
-0.598798 -0.190804 1.157 0 0 0 0 0 0 255
-0.595017 -0.216547 1.112 0 0 0 0 0 0 255
-0.5968 -0.170795 1.119 0 0 0 0 0 0 255
-0.598751 -0.218463 1.153 0 0 0 0 0 0 255
-0.596768 -0.217191 1.157 0 0 0 0 0 0 255
-0.60646 -0.38126 1.126 0 0 0 0 0 0 255
-0.594521 -0.316277 1.141 0 0 0 0 0 0 255
-0.596582 -0.361505 1.126 0 0 0 0 0 0 255
-0.5965 -0.21767 1.193 0 0 0 0 0 0 255
-0.604484 -0.393112 1.126 0 0 0 0 0 0 255
-0.596719 -0.374684 1.13 0 0 0 0 0 0 255
-0.598579 -0.16236 1.115 0 0 0 0 0 0 255
-0.592958 -0.26753 1.138 0 0 0 0 0 0 255
-0.598919 -0.210695 1.112 0 0 0 0 0 0 255
-0.596658 -0.226605 1.185 0 0 0 0 0 0 255
-0.59676 -0.192037 1.177 0 0 0 0 0 0 255
-0.592632 -0.244954 1.126 0 0 0 0 0 0 255
-0.598832 -0.228126 1.161 0 0 0 0 0 0 255
-0.594954 -0.199649 1.138 0 0 0 0 0 0 255
-0.596842 -0.222821 1.134 0 0 0 0 0 0 255
-0.596674 -0.288258 1.149 0 0 0 0 0 0 255
-0.598947 -0.219614 1.138 0 0 0 0 0 0 255
-0.594521 -0.314275 1.141 0 0 0 0 0 0 255
-0.600533 -0.363481 1.126 0 0 0 0 0 0 255
-0.598856 -0.264563 1.169 0 0 0 0 0 0 255
-0.598856 -0.262512 1.169 0 0 0 0 0 0 255
-0.598579 -0.156491 1.115 0 0 0 0 0 0 255
-0.594737 -0.33107 1.13 0 0 0 0 0 0 255
-0.596968 -0.17753 1.112 0 0 0 0 0 0 255
-0.594658 -0.320511 1.149 0 0 0 0 0 0 255
-0.595017 -0.339453 1.112 0 0 0 0 0 0 255
-0.600726 -0.355332 1.119 0 0 0 0 0 0 255
-0.594954 -0.331418 1.138 0 0 0 0 0 0 255
-0.596728 -0.238691 1.153 0 0 0 0 0 0 255
