ply
format ascii 1.0
element vertex 1145
property float x
property float y
property float z
property float normal_x
property float normal_y
property float normal_z
property uchar red
property uchar green
property uchar blue
property uchar alpha
end_header
-0.598937 -0.400792 1.126 0 0 0 0 0 0 255
-0.593407 -0.21019 1.134 0 0 0 0 0 0 255
-0.591527 -0.268139 1.123 0 0 0 0 0 0 255
-0.593573 -0.243695 1.173 0 0 0 0 0 0 255
-0.591527 -0.355217 1.123 0 0 0 0 0 0 255
-0.591314 -0.36522 1.13 0 0 0 0 0 0 255
-0.587645 -0.308978 1.138 0 0 0 0 0 0 255
-0.593463 -0.188536 1.157 0 0 0 0 0 0 255
-0.593511 -0.209193 1.161 0 0 0 0 0 0 255
-0.585733 -0.298087 1.112 0 0 0 0 0 0 255
-0.583953 -0.315251 1.105 0 0 0 0 0 0 255
-0.59505 -0.381389 1.126 0 0 0 0 0 0 255
-0.59505 -0.38333 1.126 0 0 0 0 0 0 255
-0.591164 -0.173783 1.126 0 0 0 0 0 0 255
-0.589221 -0.315421 1.126 0 0 0 0 0 0 255
-0.58586 -0.317155 1.105 0 0 0 0 0 0 255
-0.589237 -0.237409 1.115 0 0 0 0 0 0 255
-0.593236 -0.249716 1.145 0 0 0 0 0 0 255
-0.593545 -0.261637 1.181 0 0 0 0 0 0 255
-0.587652 -0.298087 1.112 0 0 0 0 0 0 255
-0.591466 -0.192523 1.157 0 0 0 0 0 0 255
-0.593463 -0.208473 1.157 0 0 0 0 0 0 255
-0.593622 -0.217302 1.206 0 0 0 0 0 0 255
-0.59126 -0.214202 1.145 0 0 0 0 0 0 255
-0.589364 -0.252286 1.13 0 0 0 0 0 0 255
-0.591573 -0.234463 1.138 0 0 0 0 0 0 255
-0.591164 -0.342585 1.126 0 0 0 0 0 0 255
-0.593545 -0.264115 1.165 0 0 0 0 0 0 255
-0.595403 -0.368763 1.123 0 0 0 0 0 0 255
-0.587539 -0.312212 1.101 0 0 0 0 0 0 255
-0.587652 -0.307667 1.112 0 0 0 0 0 0 255
-0.595515 -0.201191 1.161 0 0 0 0 0 0 255
-0.595515 -0.203192 1.161 0 0 0 0 0 0 255
-0.598937 -0.38915 1.126 0 0 0 0 0 0 255
-0.593132 -0.1702 1.141 0 0 0 0 0 0 255
-0.587313 -0.279678 1.115 0 0 0 0 0 0 255
-0.587313 -0.304655 1.115 0 0 0 0 0 0 255
-0.59145 -0.245363 1.134 0 0 0 0 0 0 255
-0.593536 -0.224658 1.138 0 0 0 0 0 0 255
-0.59145 -0.198466 1.134 0 0 0 0 0 0 255
-0.593545 -0.251462 1.181 0 0 0 0 0 0 255
-0.593566 -0.24047 1.177 0 0 0 0 0 0 255
-0.591573 -0.316822 1.138 0 0 0 0 0 0 255
-0.593409 -0.344073 1.112 0 0 0 0 0 0 255
-0.587313 -0.254701 1.115 0 0 0 0 0 0 255
-0.59141 -0.247019 1.189 0 0 0 0 0 0 255
-0.587225 -0.280301 1.141 0 0 0 0 0 0 255
-0.591465 -0.199224 1.185 0 0 0 0 0 0 255
-0.589493 -0.307892 1.134 0 0 0 0 0 0 255
-0.593401 -0.215699 1.153 0 0 0 0 0 0 255
-0.593401 -0.217686 1.153 0 0 0 0 0 0 255
-0.58745 -0.310379 1.108 0 0 0 0 0 0 255
-0.593107 -0.169903 1.126 0 0 0 0 0 0 255
-0.59141 -0.216287 1.189 0 0 0 0 0 0 255
-0.591466 -0.220435 1.157 0 0 0 0 0 0 255
-0.591164 -0.332883 1.126 0 0 0 0 0 0 255
-0.593566 -0.198549 1.169 0 0 0 0 0 0 255
-0.595403 -0.208152 1.123 0 0 0 0 0 0 255
-0.591314 -0.186083 1.13 0 0 0 0 0 0 255
-0.593545 -0.288205 1.165 0 0 0 0 0 0 255
-0.591163 -0.347148 1.141 0 0 0 0 0 0 255
-0.593409 -0.198448 1.112 0 0 0 0 0 0 255
-0.59351 -0.217602 1.185 0 0 0 0 0 0 255
-0.595403 -0.362958 1.123 0 0 0 0 0 0 255
-0.595403 -0.366828 1.123 0 0 0 0 0 0 255
-0.591573 -0.318783 1.138 0 0 0 0 0 0 255
-0.593536 -0.240346 1.138 0 0 0 0 0 0 255
-0.593545 -0.304264 1.165 0 0 0 0 0 0 255
-0.593409 -0.177371 1.112 0 0 0 0 0 0 255
-0.591411 -0.29517 1.153 0 0 0 0 0 0 255
-0.591314 -0.191925 1.13 0 0 0 0 0 0 255
-0.589571 -0.284674 1.112 0 0 0 0 0 0 255
-0.589571 -0.292338 1.112 0 0 0 0 0 0 255
-0.58745 -0.298923 1.108 0 0 0 0 0 0 255
-0.589364 -0.314595 1.13 0 0 0 0 0 0 255
-0.591465 -0.231895 1.185 0 0 0 0 0 0 255
-0.591274 -0.230191 1.108 0 0 0 0 0 0 255
-0.591573 -0.265838 1.138 0 0 0 0 0 0 255
-0.591527 -0.357152 1.123 0 0 0 0 0 0 255
-0.593463 -0.23439 1.157 0 0 0 0 0 0 255
-0.587652 -0.342157 1.112 0 0 0 0 0 0 255
-0.59351 -0.197182 1.185 0 0 0 0 0 0 255
-0.59351 -0.203308 1.185 0 0 0 0 0 0 255
-0.59351 -0.207392 1.185 0 0 0 0 0 0 255
-0.59351 -0.21556 1.185 0 0 0 0 0 0 255
-0.59149 -0.294254 1.112 0 0 0 0 0 0 255
-0.593407 -0.329386 1.134 0 0 0 0 0 0 255
-0.59145 -0.175018 1.134 0 0 0 0 0 0 255
-0.589421 -0.275302 1.153 0 0 0 0 0 0 255
-0.597144 -0.205482 1.119 0 0 0 0 0 0 255
-0.593407 -0.237547 1.134 0 0 0 0 0 0 255
-0.591549 -0.223483 1.173 0 0 0 0 0 0 255
-0.589364 -0.359379 1.13 0 0 0 0 0 0 255
-0.593511 -0.205192 1.161 0 0 0 0 0 0 255
-0.593409 -0.290422 1.112 0 0 0 0 0 0 255
-0.591527 -0.272009 1.123 0 0 0 0 0 0 255
-0.591527 -0.273944 1.123 0 0 0 0 0 0 255
-0.591164 -0.239752 1.126 0 0 0 0 0 0 255
-0.593409 -0.196532 1.112 0 0 0 0 0 0 255
-0.591351 -0.182344 1.119 0 0 0 0 0 0 255
-0.591314 -0.207502 1.13 0 0 0 0 0 0 255
-0.591164 -0.336764 1.126 0 0 0 0 0 0 255
-0.593463 -0.176574 1.157 0 0 0 0 0 0 255
-0.589421 -0.328945 1.153 0 0 0 0 0 0 255
-0.587539 -0.319801 1.101 0 0 0 0 0 0 255
-0.591507 -0.273848 1.181 0 0 0 0 0 0 255
-0.591507 -0.275883 1.181 0 0 0 0 0 0 255
-0.589221 -0.340644 1.126 0 0 0 0 0 0 255
-0.58942 -0.182344 1.119 0 0 0 0 0 0 255
-0.589221 -0.288258 1.126 0 0 0 0 0 0 255
-0.587766 -0.267649 1.105 0 0 0 0 0 0 255
-0.598937 -0.38333 1.126 0 0 0 0 0 0 255
-0.593566 -0.184448 1.169 0 0 0 0 0 0 255
-0.593566 -0.186463 1.169 0 0 0 0 0 0 255
-0.595583 -0.184307 1.181 0 0 0 0 0 0 255
-0.595583 -0.186342 1.181 0 0 0 0 0 0 255
-0.591164 -0.338704 1.126 0 0 0 0 0 0 255
-0.591164 -0.340644 1.126 0 0 0 0 0 0 255
-0.591466 -0.21246 1.157 0 0 0 0 0 0 255
-0.593536 -0.220736 1.138 0 0 0 0 0 0 255
-0.593573 -0.265929 1.173 0 0 0 0 0 0 255
-0.59149 -0.292338 1.112 0 0 0 0 0 0 255
-0.59126 -0.196445 1.145 0 0 0 0 0 0 255
-0.589194 -0.30586 1.141 0 0 0 0 0 0 255
-0.593323 -0.197117 1.197 0 0 0 0 0 0 255
-0.591161 -0.287363 1.115 0 0 0 0 0 0 255
-0.595308 -0.189212 1.149 0 0 0 0 0 0 255
-0.589364 -0.308753 1.13 0 0 0 0 0 0 255
-0.593086 -0.289284 1.115 0 0 0 0 0 0 255
-0.593573 -0.278056 1.173 0 0 0 0 0 0 255
-0.59149 -0.175455 1.112 0 0 0 0 0 0 255
-0.589362 -0.25692 1.108 0 0 0 0 0 0 255
-0.591341 -0.210848 1.193 0 0 0 0 0 0 255
-0.593409 -0.292338 1.112 0 0 0 0 0 0 255
-0.593132 -0.349114 1.141 0 0 0 0 0 0 255
-0.591341 -0.198514 1.193 0 0 0 0 0 0 255
-0.591341 -0.208792 1.193 0 0 0 0 0 0 255
-0.593409 -0.209945 1.112 0 0 0 0 0 0 255
-0.593463 -0.21246 1.157 0 0 0 0 0 0 255
-0.591466 -0.216447 1.157 0 0 0 0 0 0 255
-0.591527 -0.171385 1.123 0 0 0 0 0 0 255
-0.593236 -0.247743 1.145 0 0 0 0 0 0 255
-0.593323 -0.219805 1.197 0 0 0 0 0 0 255
-0.595213 -0.361665 1.119 0 0 0 0 0 0 255
-0.591164 -0.200947 1.126 0 0 0 0 0 0 255
-0.585538 -0.321834 1.108 0 0 0 0 0 0 255
-0.59141 -0.195799 1.189 0 0 0 0 0 0 255
-0.589221 -0.361987 1.126 0 0 0 0 0 0 255
-0.58745 -0.30847 1.108 0 0 0 0 0 0 255
-0.591549 -0.293223 1.169 0 0 0 0 0 0 255
-0.593401 -0.22762 1.153 0 0 0 0 0 0 255
-0.593511 -0.237201 1.161 0 0 0 0 0 0 255
-0.589504 -0.319224 1.161 0 0 0 0 0 0 255
-0.587645 -0.277603 1.138 0 0 0 0 0 0 255
-0.587414 -0.336013 1.13 0 0 0 0 0 0 255
-0.587278 -0.30378 1.126 0 0 0 0 0 0 255
-0.593566 -0.297251 1.169 0 0 0 0 0 0 255
-0.593407 -0.218007 1.134 0 0 0 0 0 0 255
-0.591573 -0.220736 1.138 0 0 0 0 0 0 255
-0.589609 -0.277603 1.138 0 0 0 0 0 0 255
-0.591549 -0.299266 1.169 0 0 0 0 0 0 255
-0.587645 -0.307017 1.138 0 0 0 0 0 0 255
-0.598937 -0.38527 1.126 0 0 0 0 0 0 255
-0.587313 -0.275835 1.115 0 0 0 0 0 0 255
-0.591314 -0.180242 1.13 0 0 0 0 0 0 255
-0.593107 -0.367808 1.126 0 0 0 0 0 0 255
-0.593107 -0.360047 1.126 0 0 0 0 0 0 255
-0.596994 -0.381389 1.126 0 0 0 0 0 0 255
-0.593573 -0.199228 1.173 0 0 0 0 0 0 255
-0.587377 -0.321864 1.149 0 0 0 0 0 0 255
-0.589364 -0.336013 1.13 0 0 0 0 0 0 255
-0.58942 -0.240189 1.119 0 0 0 0 0 0 255
-0.591549 -0.282099 1.173 0 0 0 0 0 0 255
-0.598937 -0.381389 1.126 0 0 0 0 0 0 255
-0.59126 -0.334554 1.145 0 0 0 0 0 0 255
-0.593407 -0.229731 1.134 0 0 0 0 0 0 255
-0.59141 -0.208092 1.189 0 0 0 0 0 0 255
-0.59145 -0.243409 1.134 0 0 0 0 0 0 255
-0.60088 -0.38333 1.126 0 0 0 0 0 0 255
-0.60088 -0.38527 1.126 0 0 0 0 0 0 255
-0.589237 -0.346923 1.115 0 0 0 0 0 0 255
-0.593511 -0.289216 1.161 0 0 0 0 0 0 255
-0.583626 -0.319925 1.108 0 0 0 0 0 0 255
-0.593503 -0.195087 1.21 0 0 0 0 0 0 255
-0.593132 -0.227217 1.141 0 0 0 0 0 0 255
-0.591274 -0.186279 1.108 0 0 0 0 0 0 255
-0.593573 -0.203271 1.173 0 0 0 0 0 0 255
-0.5955 -0.167792 1.138 0 0 0 0 0 0 255
-0.591161 -0.346923 1.115 0 0 0 0 0 0 255
-0.58942 -0.307676 1.119 0 0 0 0 0 0 255
-0.591163 -0.33142 1.141 0 0 0 0 0 0 255
-0.59145 -0.268811 1.134 0 0 0 0 0 0 255
-0.589358 -0.253166 1.189 0 0 0 0 0 0 255
-0.595556 -0.207907 1.165 0 0 0 0 0 0 255
-0.595591 -0.195087 1.21 0 0 0 0 0 0 255
-0.591164 -0.266915 1.126 0 0 0 0 0 0 255
-0.593536 -0.326626 1.138 0 0 0 0 0 0 255
-0.59149 -0.342157 1.112 0 0 0 0 0 0 255
-0.589364 -0.312647 1.13 0 0 0 0 0 0 255
-0.591465 -0.225769 1.185 0 0 0 0 0 0 255
-0.59149 -0.344073 1.112 0 0 0 0 0 0 255
-0.589493 -0.290306 1.134 0 0 0 0 0 0 255
-0.585332 -0.314825 1.145 0 0 0 0 0 0 255
-0.59351 -0.195141 1.185 0 0 0 0 0 0 255
-0.601217 -0.397789 1.123 0 0 0 0 0 0 255
-0.601217 -0.399724 1.123 0 0 0 0 0 0 255
-0.591161 -0.158636 1.115 0 0 0 0 0 0 255
-0.591535 -0.215936 1.165 0 0 0 0 0 0 255
-0.593264 -0.380797 1.13 0 0 0 0 0 0 255
-0.589364 -0.289282 1.13 0 0 0 0 0 0 255
-0.591549 -0.271993 1.173 0 0 0 0 0 0 255
-0.589194 -0.317657 1.141 0 0 0 0 0 0 255
-0.593536 -0.230541 1.138 0 0 0 0 0 0 255
-0.593566 -0.273079 1.169 0 0 0 0 0 0 255
-0.593545 -0.205899 1.165 0 0 0 0 0 0 255
-0.593545 -0.207907 1.165 0 0 0 0 0 0 255
-0.593545 -0.298242 1.165 0 0 0 0 0 0 255
-0.591351 -0.217051 1.119 0 0 0 0 0 0 255
-0.58745 -0.300833 1.108 0 0 0 0 0 0 255
-0.591466 -0.194517 1.157 0 0 0 0 0 0 255
-0.593545 -0.280175 1.165 0 0 0 0 0 0 255
-0.593573 -0.271993 1.173 0 0 0 0 0 0 255
-0.58942 -0.288394 1.119 0 0 0 0 0 0 255
-0.59351 -0.193099 1.185 0 0 0 0 0 0 255
-0.589589 -0.28749 1.123 0 0 0 0 0 0 255
-0.591549 -0.21944 1.173 0 0 0 0 0 0 255
-0.591508 -0.251205 1.161 0 0 0 0 0 0 255
-0.589364 -0.254233 1.13 0 0 0 0 0 0 255
-0.59505 -0.363927 1.126 0 0 0 0 0 0 255
-0.583739 -0.319801 1.101 0 0 0 0 0 0 255
-0.59505 -0.365868 1.126 0 0 0 0 0 0 255
-0.583739 -0.321698 1.101 0 0 0 0 0 0 255
-0.593407 -0.235593 1.134 0 0 0 0 0 0 255
-0.591549 -0.222721 1.169 0 0 0 0 0 0 255
-0.589493 -0.28249 1.134 0 0 0 0 0 0 255
-0.589609 -0.301134 1.138 0 0 0 0 0 0 255
-0.589493 -0.249271 1.134 0 0 0 0 0 0 255
-0.591314 -0.318489 1.13 0 0 0 0 0 0 255
-0.587414 -0.304859 1.13 0 0 0 0 0 0 255
-0.591549 -0.224735 1.169 0 0 0 0 0 0 255
-0.593463 -0.246352 1.157 0 0 0 0 0 0 255
-0.587766 -0.326675 1.105 0 0 0 0 0 0 255
-0.593463 -0.194517 1.157 0 0 0 0 0 0 255
-0.593462 -0.244971 1.189 0 0 0 0 0 0 255
-0.593511 -0.189188 1.161 0 0 0 0 0 0 255
-0.591411 -0.241527 1.153 0 0 0 0 0 0 255
-0.593573 -0.28412 1.173 0 0 0 0 0 0 255
-0.587539 -0.321698 1.101 0 0 0 0 0 0 255
-0.591535 -0.221959 1.165 0 0 0 0 0 0 255
-0.591507 -0.265707 1.181 0 0 0 0 0 0 255
-0.603014 -0.39248 1.13 0 0 0 0 0 0 255
-0.583814 -0.319164 1.112 0 0 0 0 0 0 255
-0.589571 -0.29617 1.112 0 0 0 0 0 0 255
-0.587766 -0.265745 1.105 0 0 0 0 0 0 255
-0.589439 -0.321698 1.101 0 0 0 0 0 0 255
-0.595597 -0.187739 1.177 0 0 0 0 0 0 255
-0.585538 -0.319925 1.108 0 0 0 0 0 0 255
-0.591466 -0.270276 1.157 0 0 0 0 0 0 255
-0.589469 -0.275883 1.181 0 0 0 0 0 0 255
-0.593264 -0.382744 1.13 0 0 0 0 0 0 255
-0.591342 -0.258508 1.149 0 0 0 0 0 0 255
-0.589589 -0.301035 1.123 0 0 0 0 0 0 255
-0.59141 -0.242922 1.189 0 0 0 0 0 0 255
-0.591314 -0.353537 1.13 0 0 0 0 0 0 255
-0.587652 -0.338325 1.112 0 0 0 0 0 0 255
-0.593573 -0.282099 1.173 0 0 0 0 0 0 255
-0.593511 -0.231199 1.161 0 0 0 0 0 0 255
-0.593511 -0.235201 1.161 0 0 0 0 0 0 255
-0.589493 -0.30203 1.134 0 0 0 0 0 0 255
-0.591508 -0.253206 1.161 0 0 0 0 0 0 255
-0.595597 -0.248582 1.177 0 0 0 0 0 0 255
-0.58936 -0.278307 1.149 0 0 0 0 0 0 255
-0.593409 -0.165874 1.112 0 0 0 0 0 0 255
-0.59337 -0.197824 1.214 0 0 0 0 0 0 255
-0.587225 -0.321589 1.141 0 0 0 0 0 0 255
-0.595403 -0.359088 1.123 0 0 0 0 0 0 255
-0.589194 -0.26064 1.141 0 0 0 0 0 0 255
-0.58942 -0.184272 1.119 0 0 0 0 0 0 255
-0.591466 -0.244359 1.157 0 0 0 0 0 0 255
-0.591161 -0.200905 1.115 0 0 0 0 0 0 255
-0.591508 -0.301219 1.161 0 0 0 0 0 0 255
-0.587432 -0.324971 1.153 0 0 0 0 0 0 255
-0.591342 -0.351562 1.149 0 0 0 0 0 0 255
-0.593325 -0.349582 1.149 0 0 0 0 0 0 255
-0.593503 -0.197172 1.21 0 0 0 0 0 0 255
-0.591161 -0.1644 1.115 0 0 0 0 0 0 255
-0.597341 -0.359088 1.123 0 0 0 0 0 0 255
-0.591508 -0.265209 1.161 0 0 0 0 0 0 255
-0.593325 -0.246629 1.149 0 0 0 0 0 0 255
-0.591549 -0.233589 1.173 0 0 0 0 0 0 255
-0.593566 -0.197879 1.177 0 0 0 0 0 0 255
-0.58942 -0.336598 1.119 0 0 0 0 0 0 255
-0.593465 -0.212022 1.123 0 0 0 0 0 0 255
-0.599279 -0.359088 1.123 0 0 0 0 0 0 255
-0.59145 -0.33134 1.134 0 0 0 0 0 0 255
-0.593566 -0.264808 1.177 0 0 0 0 0 0 255
-0.589609 -0.273681 1.138 0 0 0 0 0 0 255
-0.591161 -0.162479 1.115 0 0 0 0 0 0 255
-0.589589 -0.312646 1.123 0 0 0 0 0 0 255
-0.591549 -0.289194 1.169 0 0 0 0 0 0 255
-0.589221 -0.338704 1.126 0 0 0 0 0 0 255
-0.591164 -0.197066 1.126 0 0 0 0 0 0 255
-0.593401 -0.211725 1.153 0 0 0 0 0 0 255
-0.593401 -0.213712 1.153 0 0 0 0 0 0 255
-0.591164 -0.177664 1.126 0 0 0 0 0 0 255
-0.591507 -0.237217 1.181 0 0 0 0 0 0 255
-0.589237 -0.293127 1.115 0 0 0 0 0 0 255
-0.58745 -0.277922 1.108 0 0 0 0 0 0 255
-0.58942 -0.290322 1.119 0 0 0 0 0 0 255
-0.591535 -0.229989 1.165 0 0 0 0 0 0 255
-0.589194 -0.237047 1.141 0 0 0 0 0 0 255
-0.59351 -0.242104 1.185 0 0 0 0 0 0 255
-0.593511 -0.175184 1.161 0 0 0 0 0 0 255
-0.591573 -0.222697 1.138 0 0 0 0 0 0 255
-0.591274 -0.23401 1.108 0 0 0 0 0 0 255
-0.591465 -0.24823 1.185 0 0 0 0 0 0 255
-0.601217 -0.407464 1.123 0 0 0 0 0 0 255
-0.593401 -0.189871 1.153 0 0 0 0 0 0 255
-0.593325 -0.298106 1.149 0 0 0 0 0 0 255
-0.593566 -0.291208 1.169 0 0 0 0 0 0 255
-0.595213 -0.205482 1.119 0 0 0 0 0 0 255
-0.591549 -0.215398 1.173 0 0 0 0 0 0 255
-0.593566 -0.289194 1.169 0 0 0 0 0 0 255
-0.591465 -0.250272 1.185 0 0 0 0 0 0 255
-0.59351 -0.250272 1.185 0 0 0 0 0 0 255
-0.591465 -0.207392 1.185 0 0 0 0 0 0 255
-0.589571 -0.336409 1.112 0 0 0 0 0 0 255
-0.589589 -0.188801 1.123 0 0 0 0 0 0 255
-0.587539 -0.323595 1.101 0 0 0 0 0 0 255
-0.589571 -0.22719 1.112 0 0 0 0 0 0 255
-0.59141 -0.240873 1.189 0 0 0 0 0 0 255
-0.59126 -0.28523 1.145 0 0 0 0 0 0 255
-0.593409 -0.169706 1.112 0 0 0 0 0 0 255
-0.591465 -0.229853 1.185 0 0 0 0 0 0 255
-0.583511 -0.311078 1.097 0 0 0 0 0 0 255
-0.585733 -0.324912 1.112 0 0 0 0 0 0 255
-0.589194 -0.362877 1.141 0 0 0 0 0 0 255
-0.593536 -0.236424 1.138 0 0 0 0 0 0 255
-0.591164 -0.22617 1.126 0 0 0 0 0 0 255
-0.583626 -0.316107 1.108 0 0 0 0 0 0 255
-0.601064 -0.394427 1.13 0 0 0 0 0 0 255
-0.589609 -0.363884 1.138 0 0 0 0 0 0 255
-0.589469 -0.273848 1.181 0 0 0 0 0 0 255
-0.59351 -0.186973 1.185 0 0 0 0 0 0 255
-0.601217 -0.405529 1.123 0 0 0 0 0 0 255
-0.589194 -0.303894 1.141 0 0 0 0 0 0 255
-0.591351 -0.352024 1.119 0 0 0 0 0 0 255
-0.59126 -0.352311 1.145 0 0 0 0 0 0 255
-0.599114 -0.394427 1.13 0 0 0 0 0 0 255
-0.595583 -0.249427 1.181 0 0 0 0 0 0 255
-0.591535 -0.283061 1.177 0 0 0 0 0 0 255
-0.597144 -0.359737 1.119 0 0 0 0 0 0 255
-0.595391 -0.181924 1.153 0 0 0 0 0 0 255
-0.591573 -0.35604 1.138 0 0 0 0 0 0 255
-0.591161 -0.216275 1.115 0 0 0 0 0 0 255
-0.59158 -0.362852 1.105 0 0 0 0 0 0 255
-0.589493 -0.343065 1.134 0 0 0 0 0 0 255
-0.593566 -0.199907 1.177 0 0 0 0 0 0 255
-0.59145 -0.176972 1.134 0 0 0 0 0 0 255
-0.593323 -0.22393 1.197 0 0 0 0 0 0 255
-0.591411 -0.261395 1.153 0 0 0 0 0 0 255
-0.589221 -0.200947 1.126 0 0 0 0 0 0 255
-0.59505 -0.263034 1.126 0 0 0 0 0 0 255
-0.58936 -0.331763 1.149 0 0 0 0 0 0 255
-0.593236 -0.352311 1.145 0 0 0 0 0 0 255
-0.593282 -0.205482 1.119 0 0 0 0 0 0 255
-0.591573 -0.314861 1.138 0 0 0 0 0 0 255
-0.593536 -0.193284 1.138 0 0 0 0 0 0 255
-0.593536 -0.234463 1.138 0 0 0 0 0 0 255
-0.587652 -0.278925 1.112 0 0 0 0 0 0 255
-0.591573 -0.244268 1.138 0 0 0 0 0 0 255
-0.59126 -0.210256 1.145 0 0 0 0 0 0 255
-0.591164 -0.365868 1.126 0 0 0 0 0 0 255
-0.587539 -0.257194 1.101 0 0 0 0 0 0 255
-0.59149 -0.347906 1.112 0 0 0 0 0 0 255
-0.591161 -0.210511 1.115 0 0 0 0 0 0 255
-0.593545 -0.272145 1.165 0 0 0 0 0 0 255
-0.595597 -0.183058 1.173 0 0 0 0 0 0 255
-0.587225 -0.264572 1.141 0 0 0 0 0 0 255
-0.58947 -0.216447 1.157 0 0 0 0 0 0 255
-0.593463 -0.292206 1.157 0 0 0 0 0 0 255
-0.591549 -0.253801 1.173 0 0 0 0 0 0 255
-0.591164 -0.358107 1.126 0 0 0 0 0 0 255
-0.591535 -0.279004 1.177 0 0 0 0 0 0 255
-0.593107 -0.216469 1.126 0 0 0 0 0 0 255
-0.591314 -0.184136 1.13 0 0 0 0 0 0 255
-0.593086 -0.350766 1.115 0 0 0 0 0 0 255
-0.59145 -0.319616 1.134 0 0 0 0 0 0 255
-0.593566 -0.275094 1.169 0 0 0 0 0 0 255
-0.591164 -0.348405 1.126 0 0 0 0 0 0 255
-0.593107 -0.206767 1.126 0 0 0 0 0 0 255
-0.589221 -0.255274 1.126 0 0 0 0 0 0 255
-0.591573 -0.310939 1.138 0 0 0 0 0 0 255
-0.589237 -0.220118 1.115 0 0 0 0 0 0 255
-0.591164 -0.268855 1.126 0 0 0 0 0 0 255
-0.591161 -0.350766 1.115 0 0 0 0 0 0 255
-0.59158 -0.328579 1.105 0 0 0 0 0 0 255
-0.593573 -0.245716 1.173 0 0 0 0 0 0 255
-0.589194 -0.327487 1.141 0 0 0 0 0 0 255
-0.591411 -0.23954 1.153 0 0 0 0 0 0 255
-0.589524 -0.290184 1.173 0 0 0 0 0 0 255
-0.593545 -0.225007 1.181 0 0 0 0 0 0 255
-0.591161 -0.348844 1.115 0 0 0 0 0 0 255
-0.591411 -0.257421 1.153 0 0 0 0 0 0 255
-0.591573 -0.369767 1.138 0 0 0 0 0 0 255
-0.58745 -0.304651 1.108 0 0 0 0 0 0 255
-0.589589 -0.275879 1.123 0 0 0 0 0 0 255
-0.587278 -0.299899 1.126 0 0 0 0 0 0 255
-0.589571 -0.225274 1.112 0 0 0 0 0 0 255
-0.589362 -0.302742 1.108 0 0 0 0 0 0 255
-0.591342 -0.288206 1.149 0 0 0 0 0 0 255
-0.593463 -0.230403 1.157 0 0 0 0 0 0 255
-0.589673 -0.269553 1.105 0 0 0 0 0 0 255
-0.589362 -0.297014 1.108 0 0 0 0 0 0 255
-0.593566 -0.196534 1.169 0 0 0 0 0 0 255
-0.59145 -0.354789 1.134 0 0 0 0 0 0 255
-0.591465 -0.254356 1.185 0 0 0 0 0 0 255
-0.589237 -0.291206 1.115 0 0 0 0 0 0 255
-0.595515 -0.207193 1.161 0 0 0 0 0 0 255
-0.587313 -0.25278 1.115 0 0 0 0 0 0 255
-0.58942 -0.1862 1.119 0 0 0 0 0 0 255
-0.593401 -0.237553 1.153 0 0 0 0 0 0 255
-0.589284 -0.32469 1.145 0 0 0 0 0 0 255
-0.593511 -0.211194 1.161 0 0 0 0 0 0 255
-0.589194 -0.280301 1.141 0 0 0 0 0 0 255
-0.593236 -0.192499 1.145 0 0 0 0 0 0 255
-0.589493 -0.268811 1.134 0 0 0 0 0 0 255
-0.58936 -0.266427 1.149 0 0 0 0 0 0 255
-0.589673 -0.267649 1.105 0 0 0 0 0 0 255
-0.589439 -0.316007 1.101 0 0 0 0 0 0 255
-0.59351 -0.213518 1.185 0 0 0 0 0 0 255
-0.589439 -0.317904 1.101 0 0 0 0 0 0 255
-0.587539 -0.31411 1.101 0 0 0 0 0 0 255
-0.58745 -0.268376 1.108 0 0 0 0 0 0 255
-0.597144 -0.361665 1.119 0 0 0 0 0 0 255
-0.591466 -0.308156 1.157 0 0 0 0 0 0 255
-0.589364 -0.203608 1.13 0 0 0 0 0 0 255
-0.587308 -0.316798 1.145 0 0 0 0 0 0 255
-0.591549 -0.226749 1.169 0 0 0 0 0 0 255
-0.593132 -0.353047 1.141 0 0 0 0 0 0 255
-0.591314 -0.178295 1.13 0 0 0 0 0 0 255
-0.587539 -0.259092 1.101 0 0 0 0 0 0 255
-0.593409 -0.194616 1.112 0 0 0 0 0 0 255
-0.591163 -0.333386 1.141 0 0 0 0 0 0 255
-0.591535 -0.214104 1.177 0 0 0 0 0 0 255
-0.589609 -0.365845 1.138 0 0 0 0 0 0 255
-0.593407 -0.333294 1.134 0 0 0 0 0 0 255
-0.591535 -0.189767 1.177 0 0 0 0 0 0 255
-0.591507 -0.261637 1.181 0 0 0 0 0 0 255
-0.593325 -0.189212 1.149 0 0 0 0 0 0 255
-0.593325 -0.191192 1.149 0 0 0 0 0 0 255
-0.593325 -0.351562 1.149 0 0 0 0 0 0 255
-0.593566 -0.283151 1.169 0 0 0 0 0 0 255
-0.59145 -0.196512 1.134 0 0 0 0 0 0 255
-0.596994 -0.377509 1.126 0 0 0 0 0 0 255
-0.593236 -0.350338 1.145 0 0 0 0 0 0 255
-0.589571 -0.2521 1.112 0 0 0 0 0 0 255
-0.593463 -0.192523 1.157 0 0 0 0 0 0 255
-0.593536 -0.22858 1.138 0 0 0 0 0 0 255
-0.591274 -0.302742 1.108 0 0 0 0 0 0 255
-0.589673 -0.256225 1.105 0 0 0 0 0 0 255
-0.591314 -0.376903 1.13 0 0 0 0 0 0 255
-0.589609 -0.361923 1.138 0 0 0 0 0 0 255
-0.591573 -0.201127 1.138 0 0 0 0 0 0 255
-0.593407 -0.231685 1.134 0 0 0 0 0 0 255
-0.591163 -0.240979 1.141 0 0 0 0 0 0 255
-0.593409 -0.16779 1.112 0 0 0 0 0 0 255
-0.595308 -0.185252 1.149 0 0 0 0 0 0 255
-0.595308 -0.187232 1.149 0 0 0 0 0 0 255
-0.593566 -0.187739 1.177 0 0 0 0 0 0 255
-0.59126 -0.360203 1.145 0 0 0 0 0 0 255
-0.593132 -0.189861 1.141 0 0 0 0 0 0 255
-0.591163 -0.360911 1.141 0 0 0 0 0 0 255
-0.591164 -0.330943 1.126 0 0 0 0 0 0 255
-0.589609 -0.275642 1.138 0 0 0 0 0 0 255
-0.595391 -0.179937 1.153 0 0 0 0 0 0 255
-0.591163 -0.337318 1.141 0 0 0 0 0 0 255
-0.595597 -0.249759 1.173 0 0 0 0 0 0 255
-0.595597 -0.185711 1.177 0 0 0 0 0 0 255
-0.589504 -0.323225 1.161 0 0 0 0 0 0 255
-0.591163 -0.256708 1.141 0 0 0 0 0 0 255
-0.589571 -0.255932 1.112 0 0 0 0 0 0 255
-0.587652 -0.246351 1.112 0 0 0 0 0 0 255
-0.587489 -0.244046 1.119 0 0 0 0 0 0 255
-0.593622 -0.196521 1.206 0 0 0 0 0 0 255
-0.589589 -0.242983 1.123 0 0 0 0 0 0 255
-0.593566 -0.202577 1.169 0 0 0 0 0 0 255
-0.589609 -0.201127 1.138 0 0 0 0 0 0 255
-0.595597 -0.250611 1.177 0 0 0 0 0 0 255
-0.583626 -0.312288 1.108 0 0 0 0 0 0 255
-0.58936 -0.329784 1.149 0 0 0 0 0 0 255
-0.589609 -0.259955 1.138 0 0 0 0 0 0 255
-0.59149 -0.244435 1.112 0 0 0 0 0 0 255
-0.585389 -0.247016 1.115 0 0 0 0 0 0 255
-0.593401 -0.251461 1.153 0 0 0 0 0 0 255
-0.58936 -0.339683 1.149 0 0 0 0 0 0 255
-0.60088 -0.381389 1.126 0 0 0 0 0 0 255
-0.593325 -0.22683 1.149 0 0 0 0 0 0 255
-0.591163 -0.321589 1.141 0 0 0 0 0 0 255
-0.593545 -0.18984 1.165 0 0 0 0 0 0 255
-0.591351 -0.16499 1.119 0 0 0 0 0 0 255
-0.589284 -0.261554 1.145 0 0 0 0 0 0 255
-0.593409 -0.175455 1.112 0 0 0 0 0 0 255
-0.591163 -0.197725 1.141 0 0 0 0 0 0 255
-0.591163 -0.335352 1.141 0 0 0 0 0 0 255
-0.593132 -0.193793 1.141 0 0 0 0 0 0 255
-0.59149 -0.179287 1.112 0 0 0 0 0 0 255
-0.593325 -0.187232 1.149 0 0 0 0 0 0 255
-0.58942 -0.222836 1.119 0 0 0 0 0 0 255
-0.593132 -0.351081 1.141 0 0 0 0 0 0 255
-0.593566 -0.193823 1.177 0 0 0 0 0 0 255
-0.589571 -0.185035 1.112 0 0 0 0 0 0 255
-0.589571 -0.186951 1.112 0 0 0 0 0 0 255
-0.59149 -0.171622 1.112 0 0 0 0 0 0 255
-0.595212 -0.180662 1.145 0 0 0 0 0 0 255
-0.587652 -0.280841 1.112 0 0 0 0 0 0 255
-0.591527 -0.194606 1.123 0 0 0 0 0 0 255
-0.591527 -0.349412 1.123 0 0 0 0 0 0 255
-0.589609 -0.305056 1.138 0 0 0 0 0 0 255
-0.593536 -0.191323 1.138 0 0 0 0 0 0 255
-0.591163 -0.252776 1.141 0 0 0 0 0 0 255
-0.587225 -0.319623 1.141 0 0 0 0 0 0 255
-0.59141 -0.191702 1.189 0 0 0 0 0 0 255
-0.591314 -0.260075 1.13 0 0 0 0 0 0 255
-0.585332 -0.318771 1.145 0 0 0 0 0 0 255
-0.591507 -0.198552 1.181 0 0 0 0 0 0 255
-0.589364 -0.28344 1.13 0 0 0 0 0 0 255
-0.591274 -0.228282 1.108 0 0 0 0 0 0 255
-0.593401 -0.183911 1.153 0 0 0 0 0 0 255
-0.593264 -0.384692 1.13 0 0 0 0 0 0 255
-0.593401 -0.209739 1.153 0 0 0 0 0 0 255
-0.593132 -0.174132 1.141 0 0 0 0 0 0 255
-0.591342 -0.335723 1.149 0 0 0 0 0 0 255
-0.5955 -0.267799 1.138 0 0 0 0 0 0 255
-0.58936 -0.313945 1.149 0 0 0 0 0 0 255
-0.59738 -0.179937 1.153 0 0 0 0 0 0 255
-0.589571 -0.194616 1.112 0 0 0 0 0 0 255
-0.589194 -0.266539 1.141 0 0 0 0 0 0 255
-0.601217 -0.4094 1.123 0 0 0 0 0 0 255
-0.593511 -0.293217 1.161 0 0 0 0 0 0 255
-0.589571 -0.257848 1.112 0 0 0 0 0 0 255
-0.59149 -0.254016 1.112 0 0 0 0 0 0 255
-0.59149 -0.169706 1.112 0 0 0 0 0 0 255
-0.589221 -0.297959 1.126 0 0 0 0 0 0 255
-0.589493 -0.257087 1.134 0 0 0 0 0 0 255
-0.593325 -0.248609 1.149 0 0 0 0 0 0 255
-0.591314 -0.367167 1.13 0 0 0 0 0 0 255
-0.585733 -0.300003 1.112 0 0 0 0 0 0 255
-0.587313 -0.32771 1.115 0 0 0 0 0 0 255
-0.593325 -0.345623 1.149 0 0 0 0 0 0 255
-0.59501 -0.202826 1.115 0 0 0 0 0 0 255
-0.589364 -0.341854 1.13 0 0 0 0 0 0 255
-0.593536 -0.171713 1.138 0 0 0 0 0 0 255
-0.591527 -0.202346 1.123 0 0 0 0 0 0 255
-0.591573 -0.322704 1.138 0 0 0 0 0 0 255
-0.58936 -0.337703 1.149 0 0 0 0 0 0 255
-0.589589 -0.18106 1.123 0 0 0 0 0 0 255
-0.589589 -0.182996 1.123 0 0 0 0 0 0 255
-0.595212 -0.178689 1.145 0 0 0 0 0 0 255
-0.593107 -0.264975 1.126 0 0 0 0 0 0 255
-0.587652 -0.267429 1.112 0 0 0 0 0 0 255
-0.593107 -0.266915 1.126 0 0 0 0 0 0 255
-0.591342 -0.296126 1.149 0 0 0 0 0 0 255
-0.591342 -0.298106 1.149 0 0 0 0 0 0 255
-0.593107 -0.214528 1.126 0 0 0 0 0 0 255
-0.591508 -0.213194 1.161 0 0 0 0 0 0 255
-0.593463 -0.248346 1.157 0 0 0 0 0 0 255
-0.593511 -0.291216 1.161 0 0 0 0 0 0 255
-0.595212 -0.182635 1.145 0 0 0 0 0 0 255
-0.593264 -0.170506 1.13 0 0 0 0 0 0 255
-0.593566 -0.195851 1.177 0 0 0 0 0 0 255
-0.5955 -0.169752 1.138 0 0 0 0 0 0 255
-0.5955 -0.171713 1.138 0 0 0 0 0 0 255
-0.593409 -0.183119 1.112 0 0 0 0 0 0 255
-0.58947 -0.312143 1.157 0 0 0 0 0 0 255
-0.593545 -0.186342 1.181 0 0 0 0 0 0 255
-0.593282 -0.353952 1.119 0 0 0 0 0 0 255
-0.595802 -0.193798 1.202 0 0 0 0 0 0 255
-0.593132 -0.358945 1.141 0 0 0 0 0 0 255
-0.5955 -0.234463 1.138 0 0 0 0 0 0 255
-0.596994 -0.38527 1.126 0 0 0 0 0 0 255
-0.595583 -0.202577 1.169 0 0 0 0 0 0 255
-0.59126 -0.241824 1.145 0 0 0 0 0 0 255
-0.591466 -0.222428 1.157 0 0 0 0 0 0 255
-0.591465 -0.266607 1.185 0 0 0 0 0 0 255
-0.593264 -0.219185 1.13 0 0 0 0 0 0 255
-0.591411 -0.281262 1.153 0 0 0 0 0 0 255
-0.587652 -0.328745 1.112 0 0 0 0 0 0 255
-0.589609 -0.287408 1.138 0 0 0 0 0 0 255
-0.589194 -0.262606 1.141 0 0 0 0 0 0 255
-0.589194 -0.34125 1.141 0 0 0 0 0 0 255
-0.589571 -0.254016 1.112 0 0 0 0 0 0 255
-0.589221 -0.278556 1.126 0 0 0 0 0 0 255
-0.601217 -0.388114 1.123 0 0 0 0 0 0 255
-0.591549 -0.257844 1.173 0 0 0 0 0 0 255
-0.595212 -0.168824 1.145 0 0 0 0 0 0 255
-0.589503 -0.256695 1.177 0 0 0 0 0 0 255
-0.591314 -0.371062 1.13 0 0 0 0 0 0 255
-0.591342 -0.349582 1.149 0 0 0 0 0 0 255
-0.59149 -0.185035 1.112 0 0 0 0 0 0 255
-0.59141 -0.203994 1.189 0 0 0 0 0 0 255
-0.599279 -0.403594 1.123 0 0 0 0 0 0 255
-0.59149 -0.34599 1.112 0 0 0 0 0 0 255
-0.593573 -0.259865 1.173 0 0 0 0 0 0 255
-0.591549 -0.265929 1.173 0 0 0 0 0 0 255
-0.593282 -0.203554 1.119 0 0 0 0 0 0 255
-0.59149 -0.211861 1.112 0 0 0 0 0 0 255
-0.591527 -0.239113 1.123 0 0 0 0 0 0 255
-0.589525 -0.312294 1.165 0 0 0 0 0 0 255
-0.601217 -0.411335 1.123 0 0 0 0 0 0 255
-0.591274 -0.247374 1.108 0 0 0 0 0 0 255
-0.59158 -0.338099 1.105 0 0 0 0 0 0 255
-0.59149 -0.29617 1.112 0 0 0 0 0 0 255
-0.593536 -0.348197 1.138 0 0 0 0 0 0 255
-0.591163 -0.242945 1.141 0 0 0 0 0 0 255
-0.591342 -0.284246 1.149 0 0 0 0 0 0 255
-0.593511 -0.295217 1.161 0 0 0 0 0 0 255
-0.587278 -0.292138 1.126 0 0 0 0 0 0 255
-0.591164 -0.274676 1.126 0 0 0 0 0 0 255
-0.597341 -0.357152 1.123 0 0 0 0 0 0 255
-0.591341 -0.227293 1.193 0 0 0 0 0 0 255
-0.593573 -0.25178 1.173 0 0 0 0 0 0 255
-0.591274 -0.297014 1.108 0 0 0 0 0 0 255
-0.591465 -0.252314 1.185 0 0 0 0 0 0 255
-0.591314 -0.374956 1.13 0 0 0 0 0 0 255
-0.589609 -0.307017 1.138 0 0 0 0 0 0 255
-0.593463 -0.254327 1.157 0 0 0 0 0 0 255
-0.591351 -0.195841 1.119 0 0 0 0 0 0 255
-0.591535 -0.312294 1.165 0 0 0 0 0 0 255
-0.589237 -0.287363 1.115 0 0 0 0 0 0 255
-0.587313 -0.34308 1.115 0 0 0 0 0 0 255
-0.591351 -0.350096 1.119 0 0 0 0 0 0 255
-0.593545 -0.236011 1.165 0 0 0 0 0 0 255
-0.593325 -0.234749 1.149 0 0 0 0 0 0 255
-0.599279 -0.357152 1.123 0 0 0 0 0 0 255
-0.58942 -0.330814 1.119 0 0 0 0 0 0 255
-0.591549 -0.216678 1.169 0 0 0 0 0 0 255
-0.593503 -0.207597 1.21 0 0 0 0 0 0 255
-0.591527 -0.237178 1.123 0 0 0 0 0 0 255
-0.59505 -0.162142 1.126 0 0 0 0 0 0 255
-0.593728 -0.202082 1.202 0 0 0 0 0 0 255
-0.589194 -0.337318 1.141 0 0 0 0 0 0 255
-0.593463 -0.186542 1.157 0 0 0 0 0 0 255
-0.58942 -0.254356 1.185 0 0 0 0 0 0 255
-0.601217 -0.403594 1.123 0 0 0 0 0 0 255
-0.591314 -0.238656 1.13 0 0 0 0 0 0 255
-0.591573 -0.242307 1.138 0 0 0 0 0 0 255
-0.591163 -0.25081 1.141 0 0 0 0 0 0 255
-0.593545 -0.247392 1.181 0 0 0 0 0 0 255
-0.593566 -0.262779 1.177 0 0 0 0 0 0 255
-0.59149 -0.242519 1.112 0 0 0 0 0 0 255
-0.593566 -0.271065 1.169 0 0 0 0 0 0 255
-0.591549 -0.210635 1.169 0 0 0 0 0 0 255
-0.587225 -0.30586 1.141 0 0 0 0 0 0 255
-0.593236 -0.190526 1.145 0 0 0 0 0 0 255
-0.58745 -0.272194 1.108 0 0 0 0 0 0 255
-0.591535 -0.256085 1.165 0 0 0 0 0 0 255
-0.595212 -0.17277 1.145 0 0 0 0 0 0 255
-0.593107 -0.261094 1.126 0 0 0 0 0 0 255
-0.59141 -0.22858 1.189 0 0 0 0 0 0 255
-0.593573 -0.197207 1.173 0 0 0 0 0 0 255
-0.593463 -0.182555 1.157 0 0 0 0 0 0 255
-0.593566 -0.189767 1.177 0 0 0 0 0 0 255
-0.589609 -0.308978 1.138 0 0 0 0 0 0 255
-0.59141 -0.214238 1.189 0 0 0 0 0 0 255
-0.585639 -0.257194 1.101 0 0 0 0 0 0 255
-0.597341 -0.372633 1.123 0 0 0 0 0 0 255
-0.59141 -0.226531 1.189 0 0 0 0 0 0 255
-0.587377 -0.325824 1.149 0 0 0 0 0 0 255
-0.593503 -0.205512 1.21 0 0 0 0 0 0 255
-0.589493 -0.255133 1.134 0 0 0 0 0 0 255
-0.591258 -0.230118 1.197 0 0 0 0 0 0 255
-0.591274 -0.276013 1.108 0 0 0 0 0 0 255
-0.589589 -0.198476 1.123 0 0 0 0 0 0 255
-0.591549 -0.232793 1.169 0 0 0 0 0 0 255
-0.593463 -0.218441 1.157 0 0 0 0 0 0 255
-0.59145 -0.32157 1.134 0 0 0 0 0 0 255
-0.591573 -0.324665 1.138 0 0 0 0 0 0 255
-0.591573 -0.199166 1.138 0 0 0 0 0 0 255
-0.587539 -0.316007 1.101 0 0 0 0 0 0 255
-0.591164 -0.30572 1.126 0 0 0 0 0 0 255
-0.593545 -0.239252 1.181 0 0 0 0 0 0 255
-0.591164 -0.237811 1.126 0 0 0 0 0 0 255
-0.59505 -0.375569 1.126 0 0 0 0 0 0 255
-0.591573 -0.301134 1.138 0 0 0 0 0 0 255
-0.595583 -0.244879 1.169 0 0 0 0 0 0 255
-0.587539 -0.317904 1.101 0 0 0 0 0 0 255
-0.593622 -0.200677 1.206 0 0 0 0 0 0 255
-0.593622 -0.202755 1.206 0 0 0 0 0 0 255
-0.593622 -0.211067 1.206 0 0 0 0 0 0 255
-0.593325 -0.347602 1.149 0 0 0 0 0 0 255
-0.591164 -0.261094 1.126 0 0 0 0 0 0 255
-0.593462 -0.187604 1.189 0 0 0 0 0 0 255
-0.59141 -0.187604 1.189 0 0 0 0 0 0 255
-0.591549 -0.220706 1.169 0 0 0 0 0 0 255
-0.593573 -0.189122 1.173 0 0 0 0 0 0 255
-0.593573 -0.191143 1.173 0 0 0 0 0 0 255
-0.587652 -0.271261 1.112 0 0 0 0 0 0 255
-0.596994 -0.375569 1.126 0 0 0 0 0 0 255
-0.589237 -0.225882 1.115 0 0 0 0 0 0 255
-0.593728 -0.200011 1.202 0 0 0 0 0 0 255
-0.593728 -0.208296 1.202 0 0 0 0 0 0 255
-0.593728 -0.218652 1.202 0 0 0 0 0 0 255
-0.589673 -0.254321 1.105 0 0 0 0 0 0 255
-0.591274 -0.300833 1.108 0 0 0 0 0 0 255
-0.58745 -0.276013 1.108 0 0 0 0 0 0 255
-0.591535 -0.209914 1.165 0 0 0 0 0 0 255
-0.599279 -0.407464 1.123 0 0 0 0 0 0 255
-0.587313 -0.248937 1.115 0 0 0 0 0 0 255
-0.585389 -0.250858 1.115 0 0 0 0 0 0 255
-0.591351 -0.290322 1.119 0 0 0 0 0 0 255
-0.593566 -0.20862 1.169 0 0 0 0 0 0 255
-0.591341 -0.200569 1.193 0 0 0 0 0 0 255
-0.591341 -0.204681 1.193 0 0 0 0 0 0 255
-0.593323 -0.217743 1.197 0 0 0 0 0 0 255
-0.591341 -0.231405 1.193 0 0 0 0 0 0 255
-0.589358 -0.255215 1.189 0 0 0 0 0 0 255
-0.593325 -0.250588 1.149 0 0 0 0 0 0 255
-0.591549 -0.20862 1.169 0 0 0 0 0 0 255
-0.591549 -0.212649 1.169 0 0 0 0 0 0 255
-0.587766 -0.300018 1.105 0 0 0 0 0 0 255
-0.591573 -0.367806 1.138 0 0 0 0 0 0 255
-0.593511 -0.179185 1.161 0 0 0 0 0 0 255
-0.60088 -0.400792 1.126 0 0 0 0 0 0 255
-0.593107 -0.208708 1.126 0 0 0 0 0 0 255
-0.591164 -0.350346 1.126 0 0 0 0 0 0 255
-0.591163 -0.195759 1.141 0 0 0 0 0 0 255
-0.589194 -0.339284 1.141 0 0 0 0 0 0 255
-0.589221 -0.360047 1.126 0 0 0 0 0 0 255
-0.58942 -0.224764 1.119 0 0 0 0 0 0 255
-0.591164 -0.231991 1.126 0 0 0 0 0 0 255
-0.589609 -0.238385 1.138 0 0 0 0 0 0 255
-0.591163 -0.353047 1.141 0 0 0 0 0 0 255
-0.589364 -0.361326 1.13 0 0 0 0 0 0 255
-0.591314 -0.24255 1.13 0 0 0 0 0 0 255
-0.591573 -0.212893 1.138 0 0 0 0 0 0 255
-0.59141 -0.232678 1.189 0 0 0 0 0 0 255
-0.59141 -0.234726 1.189 0 0 0 0 0 0 255
-0.59141 -0.236775 1.189 0 0 0 0 0 0 255
-0.5934 -0.245795 1.193 0 0 0 0 0 0 255
-0.59141 -0.249068 1.189 0 0 0 0 0 0 255
-0.59141 -0.251117 1.189 0 0 0 0 0 0 255
-0.58942 -0.256398 1.185 0 0 0 0 0 0 255
-0.58942 -0.25844 1.185 0 0 0 0 0 0 255
-0.58942 -0.260482 1.185 0 0 0 0 0 0 255
-0.593545 -0.197869 1.165 0 0 0 0 0 0 255
-0.591535 -0.310286 1.165 0 0 0 0 0 0 255
-0.59149 -0.248267 1.112 0 0 0 0 0 0 255
-0.589589 -0.179125 1.123 0 0 0 0 0 0 255
-0.593401 -0.175964 1.153 0 0 0 0 0 0 255
-0.593511 -0.283214 1.161 0 0 0 0 0 0 255
-0.593545 -0.209914 1.165 0 0 0 0 0 0 255
-0.59149 -0.255932 1.112 0 0 0 0 0 0 255
-0.591164 -0.22423 1.126 0 0 0 0 0 0 255
-0.593132 -0.195759 1.141 0 0 0 0 0 0 255
-0.591573 -0.246228 1.138 0 0 0 0 0 0 255
-0.591411 -0.259408 1.153 0 0 0 0 0 0 255
-0.587313 -0.291206 1.115 0 0 0 0 0 0 255
-0.58586 -0.324771 1.105 0 0 0 0 0 0 255
-0.5955 -0.265838 1.138 0 0 0 0 0 0 255
-0.589673 -0.265745 1.105 0 0 0 0 0 0 255
-0.593545 -0.249427 1.181 0 0 0 0 0 0 255
-0.593107 -0.212588 1.126 0 0 0 0 0 0 255
-0.591164 -0.354226 1.126 0 0 0 0 0 0 255
-0.591465 -0.201266 1.185 0 0 0 0 0 0 255
-0.591465 -0.238021 1.185 0 0 0 0 0 0 255
-0.591465 -0.262524 1.185 0 0 0 0 0 0 255
-0.593325 -0.300085 1.149 0 0 0 0 0 0 255
-0.59351 -0.244146 1.185 0 0 0 0 0 0 255
-0.589194 -0.364843 1.141 0 0 0 0 0 0 255
-0.60088 -0.402732 1.126 0 0 0 0 0 0 255
-0.591314 -0.240603 1.13 0 0 0 0 0 0 255
-0.593264 -0.330172 1.13 0 0 0 0 0 0 255
-0.593409 -0.173539 1.112 0 0 0 0 0 0 255
-0.587652 -0.275093 1.112 0 0 0 0 0 0 255
-0.591411 -0.309077 1.153 0 0 0 0 0 0 255
-0.593264 -0.376903 1.13 0 0 0 0 0 0 255
-0.59351 -0.184931 1.185 0 0 0 0 0 0 255
-0.589364 -0.205555 1.13 0 0 0 0 0 0 255
-0.591507 -0.267742 1.181 0 0 0 0 0 0 255
-0.591507 -0.269778 1.181 0 0 0 0 0 0 255
-0.591507 -0.271812 1.181 0 0 0 0 0 0 255
-0.593401 -0.181924 1.153 0 0 0 0 0 0 255
-0.5934 -0.223182 1.193 0 0 0 0 0 0 255
-0.587652 -0.229106 1.112 0 0 0 0 0 0 255
-0.593545 -0.195862 1.165 0 0 0 0 0 0 255
-0.59149 -0.215693 1.112 0 0 0 0 0 0 255
-0.589237 -0.239331 1.115 0 0 0 0 0 0 255
-0.591314 -0.380797 1.13 0 0 0 0 0 0 255
-0.587539 -0.310315 1.101 0 0 0 0 0 0 255
-0.589362 -0.335199 1.108 0 0 0 0 0 0 255
-0.591274 -0.237828 1.108 0 0 0 0 0 0 255
-0.595403 -0.372633 1.123 0 0 0 0 0 0 255
-0.593566 -0.267036 1.169 0 0 0 0 0 0 255
-0.589493 -0.247317 1.134 0 0 0 0 0 0 255
-0.593132 -0.191827 1.141 0 0 0 0 0 0 255
-0.591466 -0.252333 1.157 0 0 0 0 0 0 255
-0.587308 -0.320744 1.145 0 0 0 0 0 0 255
-0.593545 -0.220937 1.181 0 0 0 0 0 0 255
-0.591535 -0.252639 1.177 0 0 0 0 0 0 255
-0.589221 -0.245572 1.126 0 0 0 0 0 0 255
-0.593409 -0.367067 1.112 0 0 0 0 0 0 255
-0.589524 -0.294226 1.173 0 0 0 0 0 0 255
-0.593401 -0.253448 1.153 0 0 0 0 0 0 255
-0.593401 -0.255434 1.153 0 0 0 0 0 0 255
-0.583626 -0.310379 1.108 0 0 0 0 0 0 255
-0.589673 -0.307634 1.105 0 0 0 0 0 0 255
-0.589673 -0.309539 1.105 0 0 0 0 0 0 255
-0.593573 -0.195186 1.173 0 0 0 0 0 0 255
-0.59141 -0.230629 1.189 0 0 0 0 0 0 255
-0.591341 -0.212903 1.193 0 0 0 0 0 0 255
-0.591508 -0.211194 1.161 0 0 0 0 0 0 255
-0.59126 -0.212229 1.145 0 0 0 0 0 0 255
-0.589362 -0.188188 1.108 0 0 0 0 0 0 255
-0.587313 -0.277757 1.115 0 0 0 0 0 0 255
-0.593401 -0.17795 1.153 0 0 0 0 0 0 255
-0.591527 -0.227502 1.123 0 0 0 0 0 0 255
-0.593236 -0.229986 1.145 0 0 0 0 0 0 255
-0.593463 -0.224422 1.157 0 0 0 0 0 0 255
-0.589221 -0.290198 1.126 0 0 0 0 0 0 255
-0.58947 -0.310149 1.157 0 0 0 0 0 0 255
-0.593566 -0.244526 1.177 0 0 0 0 0 0 255
-0.593566 -0.246554 1.177 0 0 0 0 0 0 255
-0.593566 -0.250611 1.177 0 0 0 0 0 0 255
-0.591549 -0.25178 1.173 0 0 0 0 0 0 255
-0.591549 -0.276035 1.173 0 0 0 0 0 0 255
-0.591549 -0.286141 1.173 0 0 0 0 0 0 255
-0.591549 -0.292205 1.173 0 0 0 0 0 0 255
-0.591163 -0.325521 1.141 0 0 0 0 0 0 255
-0.591549 -0.294226 1.173 0 0 0 0 0 0 255
-0.593462 -0.214238 1.189 0 0 0 0 0 0 255
-0.593462 -0.216287 1.189 0 0 0 0 0 0 255
-0.593409 -0.211861 1.112 0 0 0 0 0 0 255
-0.593325 -0.290186 1.149 0 0 0 0 0 0 255
-0.589571 -0.229106 1.112 0 0 0 0 0 0 255
-0.593325 -0.207031 1.149 0 0 0 0 0 0 255
-0.59351 -0.223727 1.185 0 0 0 0 0 0 255
-0.593545 -0.286197 1.165 0 0 0 0 0 0 255
-0.593409 -0.162042 1.112 0 0 0 0 0 0 255
-0.59149 -0.165874 1.112 0 0 0 0 0 0 255
-0.591314 -0.369114 1.13 0 0 0 0 0 0 255
-0.589358 -0.257263 1.189 0 0 0 0 0 0 255
-0.587432 -0.315037 1.153 0 0 0 0 0 0 255
-0.585639 -0.323595 1.101 0 0 0 0 0 0 255
-0.589493 -0.362605 1.134 0 0 0 0 0 0 255
-0.587308 -0.273392 1.145 0 0 0 0 0 0 255
-0.591258 -0.232181 1.197 0 0 0 0 0 0 255
-0.593465 -0.206216 1.123 0 0 0 0 0 0 255
-0.595597 -0.181654 1.177 0 0 0 0 0 0 255
-0.593573 -0.193164 1.173 0 0 0 0 0 0 255
-0.591549 -0.234807 1.169 0 0 0 0 0 0 255
-0.593573 -0.241674 1.173 0 0 0 0 0 0 255
-0.591549 -0.291208 1.169 0 0 0 0 0 0 255
-0.591549 -0.30128 1.169 0 0 0 0 0 0 255
-0.58745 -0.237828 1.108 0 0 0 0 0 0 255
-0.591164 -0.30766 1.126 0 0 0 0 0 0 255
-0.591161 -0.212433 1.115 0 0 0 0 0 0 255
-0.583511 -0.312968 1.097 0 0 0 0 0 0 255
-0.589237 -0.254701 1.115 0 0 0 0 0 0 255
-0.591527 -0.233308 1.123 0 0 0 0 0 0 255
-0.59145 -0.260995 1.134 0 0 0 0 0 0 255
-0.589609 -0.295252 1.138 0 0 0 0 0 0 255
-0.593401 -0.185897 1.153 0 0 0 0 0 0 255
-0.598937 -0.398852 1.126 0 0 0 0 0 0 255
-0.591535 -0.211921 1.165 0 0 0 0 0 0 255
-0.591314 -0.193872 1.13 0 0 0 0 0 0 255
-0.591549 -0.236821 1.169 0 0 0 0 0 0 255
-0.591465 -0.227811 1.185 0 0 0 0 0 0 255
-0.593566 -0.19452 1.169 0 0 0 0 0 0 255
-0.595214 -0.386639 1.13 0 0 0 0 0 0 255
-0.595214 -0.388586 1.13 0 0 0 0 0 0 255
-0.589504 -0.225198 1.161 0 0 0 0 0 0 255
-0.595597 -0.241674 1.173 0 0 0 0 0 0 255
-0.593566 -0.242864 1.169 0 0 0 0 0 0 255
-0.593566 -0.250922 1.169 0 0 0 0 0 0 255
-0.591164 -0.216469 1.126 0 0 0 0 0 0 255
-0.593566 -0.263008 1.169 0 0 0 0 0 0 255
-0.591164 -0.220349 1.126 0 0 0 0 0 0 255
-0.593566 -0.277108 1.169 0 0 0 0 0 0 255
-0.593566 -0.279122 1.169 0 0 0 0 0 0 255
-0.593566 -0.295237 1.169 0 0 0 0 0 0 255
-0.591535 -0.308279 1.165 0 0 0 0 0 0 255
-0.593545 -0.188377 1.181 0 0 0 0 0 0 255
-0.589362 -0.298923 1.108 0 0 0 0 0 0 255
-0.591535 -0.256695 1.177 0 0 0 0 0 0 255
-0.598937 -0.394971 1.126 0 0 0 0 0 0 255
-0.598937 -0.396911 1.126 0 0 0 0 0 0 255
-0.591411 -0.269342 1.153 0 0 0 0 0 0 255
-0.598937 -0.404672 1.126 0 0 0 0 0 0 255
-0.591549 -0.228764 1.169 0 0 0 0 0 0 255
-0.591466 -0.184549 1.157 0 0 0 0 0 0 255
-0.591549 -0.230778 1.169 0 0 0 0 0 0 255
-0.593401 -0.249474 1.153 0 0 0 0 0 0 255
-0.589439 -0.319801 1.101 0 0 0 0 0 0 255
-0.591465 -0.256398 1.185 0 0 0 0 0 0 255
-0.589364 -0.248392 1.13 0 0 0 0 0 0 255
-0.591164 -0.360047 1.126 0 0 0 0 0 0 255
-0.591573 -0.359962 1.138 0 0 0 0 0 0 255
-0.58942 -0.252314 1.185 0 0 0 0 0 0 255
-0.593545 -0.183817 1.165 0 0 0 0 0 0 255
-0.597164 -0.388586 1.13 0 0 0 0 0 0 255
-0.58947 -0.218441 1.157 0 0 0 0 0 0 255
-0.58947 -0.220435 1.157 0 0 0 0 0 0 255
-0.593545 -0.229989 1.165 0 0 0 0 0 0 255
-0.595583 -0.24085 1.169 0 0 0 0 0 0 255
-0.595583 -0.242864 1.169 0 0 0 0 0 0 255
-0.593545 -0.248056 1.165 0 0 0 0 0 0 255
-0.591508 -0.255206 1.161 0 0 0 0 0 0 255
-0.591508 -0.257207 1.161 0 0 0 0 0 0 255
-0.591508 -0.261208 1.161 0 0 0 0 0 0 255
-0.593545 -0.292219 1.165 0 0 0 0 0 0 255
-0.591508 -0.299218 1.161 0 0 0 0 0 0 255
-0.587432 -0.328945 1.153 0 0 0 0 0 0 255
-0.591507 -0.225007 1.181 0 0 0 0 0 0 255
-0.591507 -0.231112 1.181 0 0 0 0 0 0 255
-0.593409 -0.254016 1.112 0 0 0 0 0 0 255
-0.591507 -0.233147 1.181 0 0 0 0 0 0 255
-0.589237 -0.245095 1.115 0 0 0 0 0 0 255
-0.591466 -0.226416 1.157 0 0 0 0 0 0 255
-0.591466 -0.246352 1.157 0 0 0 0 0 0 255
-0.593465 -0.264269 1.123 0 0 0 0 0 0 255
-0.593401 -0.187884 1.153 0 0 0 0 0 0 255
-0.591508 -0.307221 1.161 0 0 0 0 0 0 255
-0.591274 -0.218736 1.108 0 0 0 0 0 0 255
-0.593545 -0.218902 1.181 0 0 0 0 0 0 255
-0.591411 -0.243514 1.153 0 0 0 0 0 0 255
-0.593463 -0.19053 1.157 0 0 0 0 0 0 255
-0.587313 -0.339238 1.115 0 0 0 0 0 0 255
-0.59505 -0.367808 1.126 0 0 0 0 0 0 255
-0.59505 -0.369748 1.126 0 0 0 0 0 0 255
-0.593511 -0.191188 1.161 0 0 0 0 0 0 255
-0.595556 -0.201884 1.165 0 0 0 0 0 0 255
-0.591163 -0.217386 1.141 0 0 0 0 0 0 255
-0.591466 -0.266289 1.157 0 0 0 0 0 0 255
-0.593511 -0.285214 1.161 0 0 0 0 0 0 255
-0.589362 -0.28174 1.108 0 0 0 0 0 0 255
-0.591466 -0.296194 1.157 0 0 0 0 0 0 255
-0.587377 -0.313945 1.149 0 0 0 0 0 0 255
-0.593463 -0.288219 1.157 0 0 0 0 0 0 255
-0.589421 -0.336892 1.153 0 0 0 0 0 0 255
-0.589221 -0.204827 1.126 0 0 0 0 0 0 255
-0.587313 -0.341159 1.115 0 0 0 0 0 0 255
-0.591465 -0.260482 1.185 0 0 0 0 0 0 255
-0.591465 -0.264565 1.185 0 0 0 0 0 0 255
-0.587377 -0.331763 1.149 0 0 0 0 0 0 255
-0.593401 -0.173977 1.153 0 0 0 0 0 0 255
-0.58947 -0.308156 1.157 0 0 0 0 0 0 255
-0.593401 -0.179937 1.153 0 0 0 0 0 0 255
-0.587414 -0.302912 1.13 0 0 0 0 0 0 255
-0.593545 -0.234003 1.165 0 0 0 0 0 0 255
-0.587225 -0.309793 1.141 0 0 0 0 0 0 255
-0.591163 -0.282267 1.141 0 0 0 0 0 0 255
-0.593536 -0.173674 1.138 0 0 0 0 0 0 255
-0.593462 -0.242922 1.189 0 0 0 0 0 0 255
-0.591573 -0.232502 1.138 0 0 0 0 0 0 255
-0.591527 -0.351347 1.123 0 0 0 0 0 0 255
-0.58936 -0.325824 1.149 0 0 0 0 0 0 255
-0.593463 -0.17458 1.157 0 0 0 0 0 0 255
-0.593463 -0.180561 1.157 0 0 0 0 0 0 255
-0.593463 -0.210466 1.157 0 0 0 0 0 0 255
-0.593463 -0.228409 1.157 0 0 0 0 0 0 255
-0.593463 -0.238378 1.157 0 0 0 0 0 0 255
-0.591411 -0.255434 1.153 0 0 0 0 0 0 255
-0.585389 -0.25278 1.115 0 0 0 0 0 0 255
-0.593401 -0.257421 1.153 0 0 0 0 0 0 255
-0.591549 -0.255823 1.173 0 0 0 0 0 0 255
-0.593463 -0.2942 1.157 0 0 0 0 0 0 255
-0.591411 -0.30709 1.153 0 0 0 0 0 0 255
-0.58936 -0.309985 1.149 0 0 0 0 0 0 255
-0.58936 -0.311965 1.149 0 0 0 0 0 0 255
-0.58936 -0.323844 1.149 0 0 0 0 0 0 255
-0.58936 -0.327804 1.149 0 0 0 0 0 0 255
-0.591573 -0.208971 1.138 0 0 0 0 0 0 255
-0.58936 -0.333743 1.149 0 0 0 0 0 0 255
-0.591573 -0.210932 1.138 0 0 0 0 0 0 255
-0.58936 -0.335723 1.149 0 0 0 0 0 0 255
-0.591573 -0.214854 1.138 0 0 0 0 0 0 255
-0.591573 -0.236424 1.138 0 0 0 0 0 0 255
-0.591411 -0.283249 1.153 0 0 0 0 0 0 255
-0.593573 -0.274014 1.173 0 0 0 0 0 0 255
-0.593463 -0.178568 1.157 0 0 0 0 0 0 255
-0.589609 -0.303095 1.138 0 0 0 0 0 0 255
-0.59158 -0.340003 1.105 0 0 0 0 0 0 255
-0.59158 -0.341908 1.105 0 0 0 0 0 0 255
-0.595555 -0.244146 1.185 0 0 0 0 0 0 255
-0.591549 -0.274014 1.173 0 0 0 0 0 0 255
-0.593573 -0.261886 1.173 0 0 0 0 0 0 255
-0.593566 -0.28718 1.169 0 0 0 0 0 0 255
-0.593463 -0.25034 1.157 0 0 0 0 0 0 255
-0.589571 -0.236771 1.112 0 0 0 0 0 0 255
-0.595583 -0.243322 1.181 0 0 0 0 0 0 255
-0.593622 -0.213145 1.206 0 0 0 0 0 0 255
-0.59505 -0.379449 1.126 0 0 0 0 0 0 255
-0.593409 -0.244435 1.112 0 0 0 0 0 0 255
-0.593401 -0.197818 1.153 0 0 0 0 0 0 255
-0.591466 -0.242365 1.157 0 0 0 0 0 0 255
-0.59546 -0.206479 1.157 0 0 0 0 0 0 255
-0.593401 -0.207752 1.153 0 0 0 0 0 0 255
-0.593401 -0.231593 1.153 0 0 0 0 0 0 255
-0.593401 -0.235567 1.153 0 0 0 0 0 0 255
-0.591342 -0.240689 1.149 0 0 0 0 0 0 255
-0.587377 -0.329784 1.149 0 0 0 0 0 0 255
-0.591342 -0.294146 1.149 0 0 0 0 0 0 255
-0.589284 -0.326663 1.145 0 0 0 0 0 0 255
-0.591342 -0.339683 1.149 0 0 0 0 0 0 255
-0.591342 -0.343643 1.149 0 0 0 0 0 0 255
-0.591342 -0.347602 1.149 0 0 0 0 0 0 255
-0.583739 -0.312212 1.101 0 0 0 0 0 0 255
-0.589421 -0.311064 1.153 0 0 0 0 0 0 255
-0.583739 -0.31411 1.101 0 0 0 0 0 0 255
-0.589421 -0.313051 1.153 0 0 0 0 0 0 255
-0.589362 -0.337108 1.108 0 0 0 0 0 0 255
-0.593323 -0.221868 1.197 0 0 0 0 0 0 255
-0.601217 -0.390049 1.123 0 0 0 0 0 0 255
-0.589609 -0.236424 1.138 0 0 0 0 0 0 255
-0.587645 -0.27172 1.138 0 0 0 0 0 0 255
-0.60088 -0.38915 1.126 0 0 0 0 0 0 255
-0.589493 -0.251225 1.134 0 0 0 0 0 0 255
-0.587308 -0.314825 1.145 0 0 0 0 0 0 255
-0.589571 -0.248267 1.112 0 0 0 0 0 0 255
-0.589493 -0.364559 1.134 0 0 0 0 0 0 255
-0.591573 -0.330548 1.138 0 0 0 0 0 0 255
-0.587313 -0.310418 1.115 0 0 0 0 0 0 255
-0.591549 -0.221462 1.173 0 0 0 0 0 0 255
-0.595391 -0.173977 1.153 0 0 0 0 0 0 255
-0.595391 -0.175964 1.153 0 0 0 0 0 0 255
-0.593325 -0.193172 1.149 0 0 0 0 0 0 255
-0.593325 -0.205051 1.149 0 0 0 0 0 0 255
-0.59126 -0.255635 1.145 0 0 0 0 0 0 255
-0.589194 -0.256708 1.141 0 0 0 0 0 0 255
-0.587645 -0.26976 1.138 0 0 0 0 0 0 255
-0.593409 -0.213777 1.112 0 0 0 0 0 0 255
-0.593325 -0.296126 1.149 0 0 0 0 0 0 255
-0.589194 -0.321589 1.141 0 0 0 0 0 0 255
-0.589194 -0.325521 1.141 0 0 0 0 0 0 255
-0.59126 -0.356257 1.145 0 0 0 0 0 0 255
-0.59126 -0.35823 1.145 0 0 0 0 0 0 255
-0.591351 -0.199697 1.119 0 0 0 0 0 0 255
-0.591163 -0.199691 1.141 0 0 0 0 0 0 255
-0.591535 -0.258723 1.177 0 0 0 0 0 0 255
-0.591274 -0.220645 1.108 0 0 0 0 0 0 255
-0.589571 -0.179287 1.112 0 0 0 0 0 0 255
-0.593282 -0.170775 1.119 0 0 0 0 0 0 255
-0.593545 -0.263672 1.181 0 0 0 0 0 0 255
-0.593545 -0.265707 1.181 0 0 0 0 0 0 255
-0.59126 -0.194472 1.145 0 0 0 0 0 0 255
-0.589362 -0.186279 1.108 0 0 0 0 0 0 255
-0.595308 -0.183273 1.149 0 0 0 0 0 0 255
-0.59351 -0.246188 1.185 0 0 0 0 0 0 255
-0.591163 -0.209522 1.141 0 0 0 0 0 0 255
-0.591163 -0.244911 1.141 0 0 0 0 0 0 255
-0.589609 -0.285447 1.138 0 0 0 0 0 0 255
-0.589221 -0.354226 1.126 0 0 0 0 0 0 255
-0.591163 -0.290132 1.141 0 0 0 0 0 0 255
-0.591163 -0.292098 1.141 0 0 0 0 0 0 255
-0.591163 -0.294064 1.141 0 0 0 0 0 0 255
-0.591163 -0.299962 1.141 0 0 0 0 0 0 255
-0.591163 -0.323555 1.141 0 0 0 0 0 0 255
-0.591163 -0.329453 1.141 0 0 0 0 0 0 255
-0.589609 -0.338392 1.138 0 0 0 0 0 0 255
-0.589609 -0.342314 1.138 0 0 0 0 0 0 255
-0.591163 -0.355013 1.141 0 0 0 0 0 0 255
-0.591549 -0.288162 1.173 0 0 0 0 0 0 255
-0.589609 -0.283486 1.138 0 0 0 0 0 0 255
-0.591314 -0.384692 1.13 0 0 0 0 0 0 255
-0.593463 -0.226416 1.157 0 0 0 0 0 0 255
-0.58745 -0.297014 1.108 0 0 0 0 0 0 255
-0.591342 -0.337703 1.149 0 0 0 0 0 0 255
-0.591573 -0.33447 1.138 0 0 0 0 0 0 255
-0.59158 -0.330483 1.105 0 0 0 0 0 0 255
-0.58947 -0.322111 1.157 0 0 0 0 0 0 255
-0.589362 -0.30656 1.108 0 0 0 0 0 0 255
-0.587225 -0.317657 1.141 0 0 0 0 0 0 255
-0.587489 -0.294178 1.119 0 0 0 0 0 0 255
-0.591164 -0.352286 1.126 0 0 0 0 0 0 255
-0.593107 -0.210648 1.126 0 0 0 0 0 0 255
-0.593107 -0.167962 1.126 0 0 0 0 0 0 255
-0.59149 -0.162042 1.112 0 0 0 0 0 0 255
-0.589237 -0.191298 1.115 0 0 0 0 0 0 255
-0.589493 -0.266857 1.134 0 0 0 0 0 0 255
-0.591573 -0.277603 1.138 0 0 0 0 0 0 255
-0.589493 -0.29226 1.134 0 0 0 0 0 0 255
-0.58942 -0.180416 1.119 0 0 0 0 0 0 255
-0.591527 -0.204281 1.123 0 0 0 0 0 0 255
-0.593503 -0.203427 1.21 0 0 0 0 0 0 255
-0.593409 -0.171622 1.112 0 0 0 0 0 0 255
-0.593132 -0.231149 1.141 0 0 0 0 0 0 255
-0.587489 -0.319245 1.119 0 0 0 0 0 0 255
-0.587313 -0.250858 1.115 0 0 0 0 0 0 255
-0.589493 -0.274673 1.134 0 0 0 0 0 0 255
-0.593407 -0.212144 1.134 0 0 0 0 0 0 255
-0.589221 -0.247513 1.126 0 0 0 0 0 0 255
-0.591535 -0.276976 1.177 0 0 0 0 0 0 255
-0.589362 -0.329471 1.108 0 0 0 0 0 0 255
-0.591274 -0.188188 1.108 0 0 0 0 0 0 255
-0.591573 -0.332509 1.138 0 0 0 0 0 0 255
-0.593536 -0.328587 1.138 0 0 0 0 0 0 255
-0.593407 -0.33134 1.134 0 0 0 0 0 0 255
-0.593566 -0.285165 1.169 0 0 0 0 0 0 255
-0.587414 -0.339907 1.13 0 0 0 0 0 0 255
-0.589571 -0.240603 1.112 0 0 0 0 0 0 255
-0.589589 -0.289425 1.123 0 0 0 0 0 0 255
-0.59145 -0.178926 1.134 0 0 0 0 0 0 255
-0.59145 -0.214099 1.134 0 0 0 0 0 0 255
-0.593264 -0.374956 1.13 0 0 0 0 0 0 255
-0.593573 -0.201249 1.173 0 0 0 0 0 0 255
-0.593536 -0.265838 1.138 0 0 0 0 0 0 255
-0.593536 -0.267799 1.138 0 0 0 0 0 0 255
-0.59145 -0.270765 1.134 0 0 0 0 0 0 255
-0.59145 -0.28249 1.134 0 0 0 0 0 0 255
-0.59149 -0.190784 1.112 0 0 0 0 0 0 255
-0.587278 -0.290198 1.126 0 0 0 0 0 0 255
-0.587278 -0.297959 1.126 0 0 0 0 0 0 255
-0.587313 -0.337317 1.115 0 0 0 0 0 0 255
-0.587278 -0.301839 1.126 0 0 0 0 0 0 255
-0.593536 -0.375649 1.138 0 0 0 0 0 0 255
-0.593463 -0.184549 1.157 0 0 0 0 0 0 255
-0.589364 -0.343802 1.13 0 0 0 0 0 0 255
-0.589237 -0.335395 1.115 0 0 0 0 0 0 255
-0.583626 -0.321834 1.108 0 0 0 0 0 0 255
-0.589237 -0.185535 1.115 0 0 0 0 0 0 255
-0.591573 -0.197205 1.138 0 0 0 0 0 0 255
-0.591549 -0.297251 1.169 0 0 0 0 0 0 255
-0.589221 -0.195126 1.126 0 0 0 0 0 0 255
-0.595403 -0.357152 1.123 0 0 0 0 0 0 255
-0.593407 -0.223869 1.134 0 0 0 0 0 0 255
-0.589284 -0.30496 1.145 0 0 0 0 0 0 255
-0.589221 -0.3096 1.126 0 0 0 0 0 0 255
-0.591314 -0.343802 1.13 0 0 0 0 0 0 255
-0.591314 -0.349643 1.13 0 0 0 0 0 0 255
-0.593264 -0.209449 1.13 0 0 0 0 0 0 255
-0.591314 -0.35159 1.13 0 0 0 0 0 0 255
-0.593545 -0.199877 1.165 0 0 0 0 0 0 255
-0.591314 -0.37885 1.13 0 0 0 0 0 0 255
-0.591314 -0.382744 1.13 0 0 0 0 0 0 255
-0.587766 -0.309539 1.105 0 0 0 0 0 0 255
-0.585639 -0.259092 1.101 0 0 0 0 0 0 255
-0.591535 -0.281033 1.177 0 0 0 0 0 0 255
-0.589571 -0.244435 1.112 0 0 0 0 0 0 255
-0.593264 -0.211396 1.13 0 0 0 0 0 0 255
-0.593401 -0.2455 1.153 0 0 0 0 0 0 255
-0.59158 -0.336195 1.105 0 0 0 0 0 0 255
-0.59145 -0.194558 1.134 0 0 0 0 0 0 255
-0.589589 -0.184931 1.123 0 0 0 0 0 0 255
-0.591164 -0.204827 1.126 0 0 0 0 0 0 255
