ply
format ascii 1.0
element vertex 102
property float x
property float y
property float z
property float normal_x
property float normal_y
property float normal_z
property uchar red
property uchar green
property uchar blue
property uchar alpha
end_header
-0.627931 -0.198815 1.349 -0.708742 -0.554143 -0.436589 81 73 64 255
-0.630172 -0.173256 1.307 -0.681009 -0.57315 -0.455769 0 0 0 255
-0.632506 -0.182591 1.322 -0.6829 -0.571764 -0.45468 0 0 0 255
-0.632506 -0.18504 1.322 -0.675507 -0.577447 -0.458526 0 0 0 255
-0.632929 -0.203813 1.349 -0.706003 -0.556377 -0.438183 0 0 0 255
-0.628169 -0.154036 1.288 -0.669398 -0.581906 -0.461835 32 29 30 255
-0.628169 -0.156422 1.288 -0.672841 -0.579319 -0.46008 0 0 0 255
-0.625432 -0.198815 1.349 -0.711113 -0.551549 -0.436019 92 88 41 255
-0.635299 -0.191519 1.333 -0.726531 -0.53901 -0.42617 0 0 0 255
-0.62557 -0.145168 1.273 -0.672841 -0.579319 -0.46008 35 35 33 255
-0.635428 -0.203813 1.349 -0.700079 -0.561217 -0.441503 0 0 0 255
-0.623292 -0.150473 1.278 -0.672841 -0.579319 -0.46008 67 63 60 255
-0.625659 -0.150473 1.278 -0.672841 -0.579319 -0.46008 0 0 0 255
-0.637682 -0.197194 1.338 -0.719857 -0.544754 -0.430174 0 0 0 255
-0.632929 -0.198815 1.349 -0.712949 -0.5506 -0.434215 0 0 0 255
-0.630092 -0.217137 1.37 -0.714514 -0.549259 -0.43334 0 0 0 255
-0.628107 -0.153438 1.283 -0.669398 -0.581906 -0.461835 0 0 0 255
-0.632593 -0.173256 1.307 -0.680348 -0.573653 -0.456124 0 0 0 255
-0.62265 -0.195443 1.343 -0.700589 -0.560199 -0.441987 115 105 26 255
-0.63012 -0.159301 1.292 -0.674852 -0.577794 -0.459052 0 0 0 255
-0.635341 -0.222401 1.387 -0.716776 -0.547341 -0.432031 23 24 28 255
-0.630321 -0.216345 1.365 -0.718566 -0.545816 -0.430985 0 0 0 255
-0.627721 -0.176349 1.312 -0.677176 -0.576041 -0.457831 0 0 0 255
-0.630152 -0.176349 1.312 -0.672853 -0.579314 -0.460069 0 0 0 255
-0.635376 -0.18834 1.328 0.734322 0.532143 0.421421 0 0 0 255
-0.635204 -0.184801 1.338 -0.726255 -0.539232 -0.42636 0 0 0 255
-0.630321 -0.218873 1.365 -0.716598 -0.547491 -0.432134 0 0 0 255
-0.63285 -0.216345 1.365 -0.718114 -0.546186 -0.431269 0 0 0 255
-0.632929 -0.193817 1.349 -0.703259 -0.558574 -0.439797 49 48 44 255
-0.635428 -0.193817 1.349 -0.691423 -0.568093 -0.446324 0 0 0 255
-0.630068 -0.210359 1.359 -0.707699 -0.554939 -0.43727 0 0 0 255
-0.627931 -0.201314 1.349 -0.721356 -0.54346 -0.429298 49 46 52 255
-0.62775 -0.173256 1.307 -0.681009 -0.57315 -0.455769 0 0 0 255
-0.632593 -0.229114 1.381 -0.716598 -0.547491 -0.432134 0 0 0 255
-0.63043 -0.201314 1.349 -0.712734 -0.550793 -0.434324 0 0 0 255
-0.632851 -0.225735 1.376 -0.716598 -0.547491 -0.432134 0 0 0 255
-0.635428 -0.201314 1.349 -0.713248 -0.550349 -0.434043 0 0 0 255
-0.630113 -0.179461 1.317 -0.681017 -0.573118 -0.455798 0 0 0 255
-0.635428 -0.196316 1.349 -0.691928 -0.567677 -0.44607 0 0 3 255
-0.632585 -0.212876 1.359 -0.710383 -0.552702 -0.435748 0 0 0 255
-0.632766 -0.207077 1.354 -0.7153 -0.548609 -0.432867 0 0 0 255
-0.630173 -0.170182 1.302 -0.677442 -0.575854 -0.457673 0 0 0 255
-0.635089 -0.192955 1.343 -0.703624 -0.558309 -0.43955 0 0 0 255
-0.635299 -0.189049 1.333 -0.729203 -0.536659 -0.42457 0 0 0 255
-0.627761 -0.170182 1.302 -0.673483 -0.57885 -0.459732 0 0 0 255
-0.627674 -0.177022 1.317 -0.678646 -0.574949 -0.457027 39 37 35 255
-0.637577 -0.190468 1.343 -0.722291 -0.542662 -0.428735 0 0 0 255
-0.632585 -0.170182 1.302 -0.679031 -0.574636 -0.456849 0 0 0 255
-0.635299 -0.184111 1.333 0.737796 0.529032 0.419263 0 0 0 255
-0.632929 -0.206312 1.349 -0.705963 -0.556413 -0.438202 0 0 0 255
-0.635204 -0.192237 1.338 -0.727188 -0.538421 -0.425794 0 0 0 255
-0.62755 -0.207841 1.359 -0.721743 -0.543064 -0.429148 72 73 79 255
-0.628107 -0.155815 1.283 -0.669398 -0.581906 -0.461835 0 0 0 255
-0.632582 -0.176349 1.312 -0.679725 -0.574127 -0.456456 0 0 0 255
-0.635299 -0.193988 1.333 -0.721059 -0.543743 -0.429438 0 0 0 255
-0.630155 -0.164723 1.297 -0.674852 -0.577794 -0.459052 0 0 0 255
-0.62755 -0.210359 1.359 -0.717486 -0.546737 -0.431617 21 20 16 255
-0.635428 -0.191318 1.349 -0.710123 -0.552943 -0.435867 15 0 3 255
-0.630092 -0.214599 1.37 -0.720812 -0.543883 -0.429676 15 1 0 255
-0.630092 -0.219675 1.37 -0.714926 -0.548912 -0.433101 0 0 0 255
-0.62755 -0.212876 1.359 -0.71764 -0.546622 -0.431505 0 0 1 255
-0.62775 -0.20206 1.354 -0.716498 -0.547627 -0.432129 73 68 59 255
-0.627931 -0.196316 1.349 -0.713251 -0.550363 -0.43402 103 96 44 255
-0.630258 -0.204569 1.354 -0.70985 -0.553202 -0.435982 0 0 0 255
-0.630258 -0.207077 1.354 -0.7153 -0.548609 -0.432867 0 0 0 255
-0.630258 -0.209585 1.354 -0.720649 -0.544024 -0.429771 0 0 0 255
-0.627928 -0.147526 1.273 -0.672841 -0.579319 -0.46008 0 0 12 255
-0.63043 -0.196316 1.349 -0.713243 -0.550317 -0.434092 40 33 0 255
-0.63043 -0.198815 1.349 -0.712949 -0.5506 -0.434215 0 0 0 255
-0.632766 -0.209585 1.354 -0.72192 -0.542978 -0.428959 0 0 0 255
-0.637577 -0.197931 1.343 -0.715289 -0.54861 -0.432885 0 0 0 255
-0.635428 -0.198815 1.349 -0.713354 -0.550225 -0.434026 0 0 0 255
-0.637927 -0.191318 1.349 -0.710104 -0.552975 -0.435856 0 0 2 255
-0.635089 -0.197931 1.343 -0.710236 -0.552864 -0.435783 0 0 0 255
-0.635089 -0.200419 1.343 -0.709931 -0.553111 -0.435966 0 0 0 255
-0.632766 -0.204569 1.354 -0.710566 -0.552601 -0.435578 0 0 0 255
-0.637577 -0.18798 1.343 -0.717561 -0.546713 -0.431521 0 0 0 255
-0.635204 -0.194715 1.338 -0.725689 -0.53973 -0.426693 0 0 0 255
-0.632929 -0.196316 1.349 -0.709805 -0.553218 -0.436036 14 13 31 255
-0.632929 -0.201314 1.349 -0.712949 -0.5506 -0.434215 0 0 0 255
-0.630173 -0.160534 1.302 -0.672743 -0.579399 -0.460123 61 64 59 255
-0.627753 -0.16232 1.297 -0.668129 -0.582838 -0.462496 2 5 1 255
-0.630173 -0.16777 1.302 -0.676129 -0.57684 -0.458373 0 0 0 255
-0.627726 -0.159301 1.292 -0.670866 -0.580789 -0.46111 0 0 0 255
-0.630092 -0.212062 1.37 -0.722847 -0.542127 -0.428474 67 48 0 255
-0.632916 -0.18096 1.328 -0.682943 -0.571754 -0.454628 0 0 0 255
-0.628027 -0.150473 1.278 -0.672841 -0.579319 -0.46008 0 0 0 255
-0.62775 -0.207077 1.354 -0.723065 -0.541988 -0.428283 0 0 0 255
-0.627726 -0.156908 1.292 -0.670834 -0.580813 -0.461127 4 0 0 255
-0.630068 -0.212876 1.359 -0.707699 -0.554939 -0.43727 0 0 0 255
-0.627753 -0.164723 1.297 -0.668129 -0.582838 -0.462496 0 0 0 255
-0.630173 -0.158122 1.302 -0.672859 -0.579296 -0.460084 93 84 69 255
-0.62775 -0.204569 1.354 -0.721221 -0.543578 -0.429375 19 18 0 255
-0.632772 -0.222401 1.387 -0.716776 -0.547341 -0.432031 52 39 48 255
-0.635089 -0.195443 1.343 -0.704003 -0.557998 -0.439338 0 0 0 255
-0.635299 -0.18658 1.333 -0.724051 -0.541151 -0.427675 0 0 0 255
-0.630155 -0.16232 1.297 -0.672596 -0.579501 -0.46021 0 0 0 255
-0.632851 -0.223186 1.376 -0.716923 -0.547213 -0.431948 0 0 0 255
-0.62557 -0.147526 1.273 -0.672841 -0.579319 -0.46008 0 0 23 255
-0.625659 -0.148105 1.278 -0.672841 -0.579319 -0.46008 35 23 0 255
-0.63285 -0.218873 1.365 -0.716598 -0.547491 -0.432134 0 0 0 255
-0.63012 -0.161694 1.292 -0.674852 -0.577794 -0.459052 0 0 0 255
